607
  0.10855359974768361       0.69484958037261579      -0.71091502771978266     
   8.7307814960222760E-002  0.63705960376995530      -0.76585403745840441     
   1.6750623063417340E-002  0.91581465976559506      -0.40125169854520809     
   6.1282966128382257E-002  0.88247488995802603      -0.46635015455779311     
   9.9046631441366037E-002  0.91410857037537430      -0.39318607092114471     
  0.39740942022539738       0.90201048720654187      -0.16865003316196106     
  0.35405636904405846       0.90444044987514161      -0.23797386446622437     
  0.43536345449054670       0.86820665834953525      -0.23806692523656206     
  0.68524177107981887       0.60844399979652064      -0.40029940579396889     
  0.62861824750433304       0.67061335601199434      -0.39384873446909963     
  0.64044967426047406       0.61150150514319479      -0.46463977869663720     
  0.49405492761291225       0.42794129186214946      -0.75681964775021182     
  0.51274889558311354       0.49082396075471563      -0.70440074505025241     
  0.44065628400447299       0.49538791993649844      -0.74860727230528468     
 -0.83895417358346114       0.51673293687258193      -0.17071311190980057     
 -0.84992463056084178       0.46866274396262009      -0.24079733135449030     
 -0.80371789968895790       0.54450315878836408      -0.23990383029260659     
 -0.87011189280191525       0.14922789934142780      -0.46971941418554636     
 -0.89479131496268527       0.20267236580820591      -0.39783465762179804     
 -0.90624163236644750       0.12074631282786197      -0.40514988794799456     
 -0.52987812546028523       0.74806579353459568      -0.39953315344555551     
 -0.59696186039680810       0.69989318103705878      -0.39215567364174209     
 -0.54641594062832755       0.69656432190675222      -0.46500297340323138     
 -0.44647113819570727       0.46856149156814236      -0.76230810790497783     
 -0.49788195433368526       0.50248624267353559      -0.70683883274244552     
 -0.51071380316392423       0.42258068528051784      -0.74873024226732587     
 -0.64151626091842251        4.9396216424291081E-002 -0.76551740723527051     
 -0.63298157777257258       0.13875142530799719      -0.76163138339720737     
 -0.69226781871511767       0.11091591420762273      -0.71306586452227561     
  0.67312463372582798      -0.26315131577887080       0.69112561266047656     
  0.62666277992071751      -0.21565563185031295       0.74885673443809042     
  0.68535412751052704      -0.17977278730889498       0.70567093240934553     
  0.23436303407185283       0.51808298991445845       0.82259588123326433     
  0.31461397078714243       0.48415949358376464       0.81646043024647541     
  0.25512931590787880       0.44271491323864620       0.85960021973035572     
 -0.53059791702783532       0.22926053269333510       0.81603030494883610     
 -0.48300334100192488       0.30065014547082530       0.82238510602354042     
 -0.45745947891199967       0.22661176179097112       0.85987088250013088     
 -0.41693016704309338      -0.58439478970739356       0.69616949485902457     
 -0.46980338313314746      -0.52149725373421163       0.71226778359288745     
 -0.40009179028076824      -0.52499528776532622       0.75120337271216509     
  0.29860645797267904      -0.85976866577126909       0.41428495581532099     
  0.23117038310317639      -0.87966614851123182       0.41562930736335979     
  0.25350967684519332      -0.83841847040637152       0.48248037496595231     
 -0.81141947311907525       0.55183523813301572       0.19255209320555364     
 -0.85751505746854406       0.47808088481238015       0.19001735129122116     
 -0.84440434473292869       0.52252506468799376       0.11810528933524216     
 -0.93679157357056042      -0.20613941295079480      -0.28271556397817055     
 -0.95337795899698630      -0.11846915218536119      -0.27755274684142928     
 -0.96331191250695969      -0.16298420468954772      -0.21322830075742577     
 -0.57343150392495024      -0.81784940526678895        4.7944349105285021E-002
 -0.57189714646232126      -0.81984512894912753       -2.8064540021929239E-002
 -0.64023276587281697      -0.76618591523717960        5.5327649462165708E-002
   4.4204435304573783E-002 -0.95577184295535877      -0.29076821028633926     
  -5.7909932834212261E-003 -0.95567537825003424      -0.29436547997930318     
   1.9800081056256021E-002 -0.96689576817969891      -0.25440230004140213     
  0.32470141285613391      -0.94426575893205611       -5.4140271496351498E-002
  0.31183997057499030      -0.94528015020428047       -9.5923252559335564E-002
  0.28983640311110825      -0.95499188331811846       -6.3129725392467292E-002
  0.59323771462566444      -0.74972744033584915      -0.29321967729532511     
  0.55295486252386528      -0.77986287956362654      -0.29335099981070767     
  0.58433977101817580      -0.77039711929119814      -0.25502021605011849     
  0.95271421671740919      -0.29969132308982926        5.0206893243866270E-002
  0.93686646432066989      -0.34915752809777673       -1.9241845128189140E-002
  0.92316881209305979      -0.38104690853835499        5.0622108530278910E-002
  0.85629169393361126       0.44631197918803589      -0.25994259391943636     
  0.88814973076665560       0.36791941725555066      -0.27536404657371866     
  0.88918710766981701       0.41237446719519666      -0.19822609908703495     
  0.35262978008063484       0.91503714410480874       0.19585520955235969     
  0.39574266856834267       0.91030301310519712       0.12139260523609385     
  0.43175140905856890       0.88089772972619396       0.19393274746462411     
 -0.32555222967130920       0.90654420801858970      -0.26868819226751883     
 -0.24300796639994329       0.93193095534951231      -0.26916876254036115     
 -0.29013346252200739       0.93658570901602589      -0.19654460967408674     
  0.10698003965049679      -0.76984314086140837      -0.62920331339323055     
   9.7152902637297783E-002 -0.74159060181982861      -0.66378060592461741     
   5.9746305924376610E-002 -0.76467011665343643      -0.64164631349802892     
 -0.47345059716246485      -0.23283041394459236      -0.84949074767703936     
 -0.42060867889250969      -0.33700523733773202      -0.84232761396456457     
 -0.40203219545586566      -0.27539144309569968      -0.87322944687327431     
 -0.11684600033987040       0.48355799043413333      -0.86747834675678070     
 -0.19507707279319869       0.45970602511444636      -0.86638057812021219     
 -0.13658783479593062       0.40943223741945400      -0.90205820563168726     
  0.55680225103752723       -5.2599177844905053E-002 -0.82897803332150044     
  0.53824528411984573        6.2260307311961631E-002 -0.84048537658674738     
  0.50601462549296106       -1.7484235114418819E-002 -0.86234766788673012     
  0.40451910770071048      -0.67022561718315343      -0.62222336309116688     
  0.43617560649338222      -0.63609982842119750      -0.63649654247501863     
  0.39251146465972142      -0.64325775852967482      -0.65738436717194504     
   4.2929403543280176E-002 -0.26149826105703666       0.96424878831946903     
   7.4685474129501259E-002 -0.20257093951561247       0.97641543126776398     
   8.9115018914241353E-002 -0.17084060455412076       0.98126041458906144     
   5.4669073090626102E-002 -0.16365822546402681       0.98500115618479234     
   3.7718665487559623E-002 -0.19631491495610692       0.97981516442623717     
 -0.87098808238717496      -0.21642313260234000       0.44106778165504412     
 -0.86428374729755086      -0.18356623973636860       0.46831297204578187     
 -0.88050340339373179      -0.14387741880079591       0.45167803242052368     
 -0.89693192881242967      -0.15170215114022892       0.41533067839522986     
 -0.89216706216293284      -0.19435091335481713       0.40775685851952237     
  -4.1030401276577061E-002 -0.98596648458199521       0.16182273465772698     
  -6.8693104647526967E-002 -0.98681597757214146       0.14654515953187483     
  -3.9924247788485773E-002 -0.99332728715598706       0.10819868312438316     
  -1.5120335893501570E-002 -0.99279717148945978       0.11884928155018788     
  -1.4382651600943352E-002 -0.98908911565407220       0.14661466716386601     
  0.60409451741570319      -0.77361824760085074       0.19127106683259118     
  0.57546418006369804      -0.80657315275643848       0.13520623771170789     
  0.59478732319052530      -0.79411364026778619       0.12494625449566203     
  0.61283773571780598      -0.77806318018862430       0.13801303313468957     
  0.60929141283859634      -0.77570139900790380       0.16447283611079391     
  0.86165305165206429       0.30472216598768775       0.40583053129903485     
  0.87173619783637779       0.31967850155032074       0.37132419397114058     
  0.84130215994818225       0.38424690189553695       0.38021703545502106     
  0.81974373683360069       0.39993055055722443       0.40997043875513739     
  0.83030414246298800       0.36603254622613279       0.42025611966039955     
 -0.28439611829966094       0.84706686493241834       0.44899507149817280     
 -0.29109578042771905       0.82505528465094791       0.48430055119390530     
 -0.25491448152157814       0.82391312567224551       0.50614797090927455     
 -0.22589132168150075       0.84520549056114258       0.48435605654753922     
 -0.24409244368155872       0.85954228094853946       0.44900550798330635     
  0.14056121349674736      -0.36872284782956233      -0.91885037233968581     
  0.13817420106803935      -0.40759174617470023      -0.90264990921700516     
   8.7303879998720038E-002 -0.32246886413326437      -0.94254541758037924     
  0.10759967410295458      -0.28800750098540367      -0.95156397026636130     
  0.16037715791543716      -0.32918245850104205      -0.93054719183616730     
 -0.44077922292017890      -0.73814040924527180      -0.51074691666333738     
 -0.41692607301678808      -0.76309597561938070      -0.49381897658180923     
 -0.39391372316638174      -0.78562739876614762      -0.47709702263704790     
 -0.40568636771603211      -0.79943760113273998      -0.44307797614472155     
 -0.47914935930763253      -0.72609056439382580      -0.49316162033692462     
  0.33488490792672038      -0.85088236170851539      -0.40478550489889231     
  0.34260617920738290      -0.85322320319334322      -0.39323170205542901     
  0.33667118383529299      -0.86067861526501233      -0.38194873373326332     
  0.32281336706173508      -0.86533667735102648      -0.38338487825858630     
  0.32332024771582435      -0.85536808086661509      -0.40473381827015886     
  0.78117065400124819      -0.38373971562028270      -0.49245937901813464     
  0.80703303063107701      -0.32556015007736439      -0.49265431709467766     
  0.82306713489819527      -0.33250547145674297      -0.46043523203791142     
  0.79589041306774944      -0.38989250116013291      -0.46318709818597376     
  0.77671561845118930      -0.41069805590621972      -0.47753529181500115     
  0.35838735519183040       0.73935044772070613      -0.57001703403827875     
  0.33151188516876190       0.76673848793161170      -0.54973808410569425     
  0.34988311154280471       0.78152671067217327      -0.51652474167561269     
  0.38764160640297662       0.76400855362710163      -0.51577603179087705     
  0.39270182316774227       0.73782935224931900      -0.54899282785850823     
 -0.70044424944470263       0.45508350460754510      -0.54979710553436134     
 -0.69864258080239905       0.40659890624964240      -0.58870695063533751     
 -0.72895458378692468       0.38983735160383765      -0.56271845008897403     
 -0.74059640779590818       0.41391981938956024      -0.52932725593559848     
 -0.72435382691259509       0.44848914187868649      -0.52361151921438620     
  0.51616382200404443       0.10125237555746304       0.85048390066958202     
  0.54439616605880858       0.11985706851446463       0.83022111362430984     
  0.53930665389868704       0.16355076111668804       0.82607474334878073     
  0.50576564797338752       0.18871623233954518       0.84177627252235265     
  0.47756688333478370       0.16991332004952375       0.86200889532048863     
  0.48293458004740403       0.12619010664491168       0.86651615586749642     
 -0.16733968897270327       0.41377835987646722       0.89486585441196698     
 -0.15622647442037879       0.37793022902351092       0.91255796017590862     
 -0.11378256540930702       0.37163191610161816       0.92138116257253533     
  -8.2210023560359127E-002  0.40104984537269350       0.91235987063918145     
  -9.3002193368127359E-002  0.43687548906687823       0.89470129042116253     
 -0.13567149626657940       0.44324487215334513       0.88607405357032787     
 -0.52891921427726030      -0.11744896426399105       0.84050592238344246     
 -0.54334518754051275      -0.15658229500469789       0.82477754095733391     
 -0.52418221681018073      -0.19536090329910857       0.82889512065286097     
 -0.49092873718060270      -0.19531300796932394       0.84902403024192052     
 -0.47632505355153204      -0.15749902221775261       0.86504826533528290     
 -0.49515655445633106      -0.11810322861614891       0.86073899294116807     
  -6.7824050343773062E-002 -0.76293047127177338       0.64291289783297634     
  -2.7535357666301497E-002 -0.75885038000206317       0.65068264526488884     
  -1.5498668657090276E-002 -0.73191759351562646       0.68121687264200370     
  -4.3983012629082267E-002 -0.70876383506321172       0.70407337735960351     
  -8.4509338439077306E-002 -0.71255409510676593       0.69650903315259838     
  -9.6252299951599743E-002 -0.73981714521611974       0.66588744273961042     
  0.43914090885748791      -0.53680301906264616       0.72041500601601016     
  0.45201175576467933      -0.59071333995397590       0.66838845191321983     
  0.44083267728248654      -0.62453667849390537       0.64468634843290684     
  0.48660125576979835      -0.57258612704497303       0.65982144933223674     
  0.49675551549445407      -0.53674138194006071       0.68201367049269124     
  0.47369899132408055      -0.51826433318227594       0.71204729236875797     
 -0.98093098417419777       0.17379820061617432       -8.6997642207244638E-002
 -0.98676801539538461       0.15298645505232414       -5.3703150402720147E-002
 -0.98430144878241888       0.17573380755706267       -1.6379462943832426E-002
 -0.97554683554583344       0.21945317048887000       -1.2193343220532886E-002
 -0.96961792126303170       0.24031752057644548       -4.5700941670244064E-002
 -0.97254659251597586       0.21735504185091992       -8.3125875439296254E-002
 -0.83740201523471092      -0.54007164694175913       -8.4145594361564158E-002
 -0.85122618266079675      -0.52240894545748084       -5.0028788299644057E-002
 -0.87342665277945597      -0.48419601077786029       -5.1769734027535375E-002
 -0.88181542588850748      -0.46353177480349106       -8.6832300514244495E-002
 -0.86793982910342615      -0.48171877831121918      -0.12094408492465421     
 -0.84566730765544540      -0.52008118783655788      -0.11984307581710910     
 -0.56653953336236096      -0.69566988215357328       0.44167450934142860     
 -0.59171421573803862      -0.69390983539569440       0.41032112696598755     
 -0.58465389082033825      -0.71911815295348236       0.37556478807445731     
 -0.57622517963212116      -0.74282567914643571       0.34084388326412168     
 -0.55094800667728938      -0.74576658769491422       0.37455105208263034     
 -0.53406491885566876      -0.72304693956883370       0.43815269670268081     
 -0.74808018724745984       0.42287250132510668       0.51142436495620069     
 -0.74208566324100966       0.39281898089343686       0.54314097310182063     
 -0.71384411723667673       0.39705307666123935       0.57686690891438186     
 -0.69164028552847145       0.43155349863585207       0.57913322582049309     
 -0.69779589517725038       0.46186985212953152       0.54750080216162644     
 -0.72593337641083622       0.45751300278774953       0.51351980029293898     
 -0.26480446377826239      -0.95041807039457027      -0.16304627389354440     
 -0.24661270192110174      -0.95139069084840144      -0.18449370888508723     
 -0.22850425469870170      -0.95173398528220532      -0.20491028974515166     
 -0.20386233235401677      -0.95896556312315584      -0.19704110787109644     
 -0.17932038162219249      -0.96527707361362491      -0.18995886894480044     
 -0.19616107329731858      -0.96574181228927269      -0.16989286423824668     
  0.20229711058399613      -0.96029623441238576      -0.19211200176657037     
  0.20847862248164267      -0.96203702095477994      -0.17612902736519329     
  0.19761855831277128      -0.96686259598118807      -0.16162804800807254     
  0.18084360045008746      -0.96988636322869404      -0.16314421411520189     
  0.17407879125950457      -0.96830044241494917      -0.17913912931753237     
  0.18475326747026011      -0.96351090277652018      -0.19368265381762376     
  0.28905202039883388      -0.95211702732345727        9.9609717317614282E-002
  0.29316141922192962      -0.94871945318798545       0.11826995147743075     
  0.28038879028584612      -0.95124212679560693       0.12853226245347923     
  0.26356909711828919      -0.95649096468436323       0.12512539918588045     
  0.25925594234843785      -0.95984231773493478       0.10718713282037187     
  0.27200761292578818      -0.95770827135268755        9.3844155348437708E-002
  0.45246409428782214      -0.86825660139809258      -0.20348640620182640     
  0.46485281085341751      -0.86621235711283895      -0.18327033755274291     
  0.45773810855757896      -0.87383543915465911      -0.16397392857254456     
  0.43828173784455021      -0.88334540366681047      -0.16616261942049546     
  0.42703930848442623      -0.88484948921292461      -0.18622247568102401     
  0.43424539242536325      -0.87739356978911731      -0.20398887923132394     
  0.75762896016431969      -0.63537587106279225      -0.14931798683189451     
  0.74453321172048026      -0.64665298858018294      -0.16586201797127675     
  0.73011577838256281      -0.65783986313181653      -0.18487202230607380     
  0.73366344646696680      -0.64691300479410940      -0.20794593419076204     
  0.76110016915302692      -0.62377427974094635      -0.17785437989798766     
  0.77315396542172155      -0.61497712857160336      -0.15503572841926849     
  0.88171103474353540      -0.25502334231233031       0.39692410620587409     
  0.87129623165063985      -0.23210002758440759       0.43240311505204460     
  0.86184907823116952      -0.27300083302807548       0.42741866070406920     
  0.86059079597658938      -0.33677740176464543       0.38205295907901937     
  0.87822858300438722      -0.31744485235871833       0.35769165730424540     
  0.88991053686964294      -0.27837734280069321       0.36133819530131239     
  0.99362656389499615        5.2431412008147903E-002  -9.9785763298453511E-002
  0.98992462188781960        9.6171473644881753E-002 -0.10392444677374557     
  0.99037627046017729       0.11932879916960068       -7.0110488503011839E-002
  0.99455525290161240        9.8760528247255522E-002  -3.3259690108794274E-002
  0.99756436330399567        3.2027316868642700E-002  -6.1964441739511322E-002
  0.99548324835631985        8.5872298813409777E-003  -9.4548197893533109E-002
  0.71976188704854127       0.69234185315380325       -5.1044924565332689E-002
  0.70352043009016374       0.70568086428494137       -8.4104234303685022E-002
  0.67238153465381301       0.73585900920555403       -8.0091138258882574E-002
  0.65670754339860538       0.75294517296859420       -4.2529624341896534E-002
  0.67307839979983553       0.73951367392561684       -9.2192082051128950E-003
  0.70492907539630489       0.70914279378278766       -1.3838232793726092E-002
  0.39185995920266997       0.73990477824977696       0.54679675519961723     
  0.37880344191656856       0.76881587440784083       0.51519909127507990     
  0.34095715926405379       0.78511412885260745       0.51705320830896884     
  0.31617006569272438       0.77249733298534196       0.55071259300146058     
  0.32915498853212438       0.74342149685444625       0.58222115346242065     
  0.36709728697053506       0.72708943974401585       0.58015560715346515     
  0.10086524393448332       0.99426610507242807       -3.5512179180396279E-002
   7.8341587289204193E-002  0.99422099423046273       -7.3397618029456796E-002
   3.4188729007232736E-002  0.99650936833486969       -7.6159107332667980E-002
   1.2496010338323761E-002  0.99907915441952078       -4.1045011024480334E-002
   3.5184025498373107E-002  0.99937588619368611       -3.1499911610298292E-003
   7.9351056283487514E-002  0.99684669011966265       -2.9370762325435387E-004
 -0.63116868524813041       0.77564546430723869       -4.5217447353699392E-004
 -0.59601531115168349       0.80296716474438978       -3.0791581833201484E-003
 -0.57692944844798921       0.81577841519309491       -4.0718408840980568E-002
 -0.59328076376410299       0.80142291893545115       -7.5757774204789158E-002
 -0.62854966223619646       0.77431527972295977       -7.3220008811238912E-002
 -0.64739361382629335       0.76132242231568426       -3.5632542097232926E-002
  -9.3557232867661322E-002 -0.62614826517330546      -0.77407066486116516     
  -8.6672564137093136E-002 -0.64954259730523534      -0.75536897004832693     
 -0.11699534300266505      -0.64243878766248952      -0.75735361214061647     
 -0.15991408649194574      -0.60802514934055218      -0.77764574371036443     
 -0.13470357179555020      -0.59076093789031470      -0.79552276020769941     
 -0.10071770383167836      -0.60082270406606852      -0.79301199386491728     
 -0.34933610397074971        6.6142640803823816E-002 -0.93466006522694334     
 -0.38046691234454194        8.7603648595736439E-002 -0.92063593747133587     
 -0.40074117492149480       0.15263659044602365      -0.90338728238754429     
 -0.36648352176041871       0.17371388885803318      -0.91406417340135349     
 -0.33711709701211201       0.15121460632863135      -0.92923958467932433     
 -0.34307732043762545       0.10822858062559959      -0.93305119180948848     
  0.29665933268010319       0.32084173601777444      -0.89947419127115402     
  0.28596061966716962       0.28632778608946108      -0.91446318838577434     
  0.24489364827615295       0.28203619161470578      -0.92762206078416920     
  0.21526623300617947       0.31455216268449737      -0.92450926759975460     
  0.22541849132793407       0.34991735302477850      -0.90925483216729208     
  0.26461859267586596       0.35185372559302824      -0.89787301785750862     
  0.49779632983060468      -0.45473074062590441      -0.73852472371410571     
  0.47993764153149354      -0.47676759813095465      -0.73644586875997087     
  0.47109029581994361      -0.45732083940686213      -0.75427553521805346     
  0.46199181638727604      -0.43639080069139075      -0.77209237184621393     
  0.48105147350995642      -0.41040656749301707      -0.77469731456388780     
  0.50884958728550733      -0.40756801850494045      -0.75826143763963449     
  0.27798820204218616      -0.71556117523115392      -0.64085471366540048     
  0.28208756559243420      -0.72524952879485161      -0.62804436652276385     
  0.27196738037512608      -0.73443960787927776      -0.62179756061762115     
  0.25731967456106469      -0.73411308761151195      -0.62838249472855345     
  0.25310933541454261      -0.72462806117188194      -0.64097569165163193     
  0.26357127209903702      -0.71534662764876278      -0.64715483992290246     
   9.1635226253025202E-003 -0.87745461157114968      -0.47957213689456396     
   2.4836709026850763E-002 -0.86836403566328357      -0.49530499639241587     
   4.9852363732206369E-002 -0.86973180430001429      -0.49100033647580482     
   5.9371565994018140E-002 -0.87980683915468028      -0.47160888766865744     
   4.3890634580993258E-002 -0.88875372522168716      -0.45627889289408463     
   1.8689239093276338E-002 -0.88774841425684015      -0.45994941605200457     
 -0.78785952327585607      -0.15666584065804667      -0.59559481693047689     
 -0.76587457542496518      -0.13986046040885483      -0.62759476283016613     
 -0.73877299922979922      -0.16304604311880597      -0.65393458650870229     
 -0.71017051472844184      -0.18664852562296427      -0.67883736483278045     
 -0.73429555572780170      -0.20247167061832155      -0.64793152372409302     
 -0.78342286875530953      -0.19685276785264222      -0.58948926750192387     
  0.52408158359152468      -0.69897347425660317      -0.48659487875012958     
  0.54089662835997199      -0.69701043785379901      -0.47075183159672346     
  0.53788450539711330      -0.71148006358638538      -0.45219064339370835     
  0.51821809546299735      -0.72766637902991216      -0.44939030515154638     
  0.50235792655781597      -0.72913416151008370      -0.46475788120646111     
  0.50514454782154117      -0.71502852276205453      -0.48328376492789904     
  0.68521842465416682       0.28109599447779660      -0.67190829166114663     
  0.72382910220545327       0.31352467173037218      -0.61463298887776097     
  0.75133702264895064       0.31124595725776566      -0.58190947104142166     
  0.74350295123082477       0.27726976043826695      -0.60854321248171028     
  0.73411915039522957       0.24291484151691084      -0.63408315921005232     
  0.70485196241822268       0.24480720140581957      -0.66577259271843781     
 -0.24074601256344377       0.72635533752003878      -0.64377735366425626     
 -0.26672242949674524       0.74487381771148875      -0.61157349623022872     
 -0.25559648992823164       0.77295647280805924      -0.58069675862750547     
 -0.21789545270529231       0.78357333629314163      -0.58183708917599153     
 -0.19199040109137547       0.76558329026932292      -0.61402110024751622     
 -0.20369413497920444       0.73662410076690776      -0.64489815749807977     
  0.29889159713541102        6.9009194756291014E-003  0.95426211832610963     
  0.26660883054774920       -1.2579431076855451E-002  0.96372272432881034     
  0.26971790510510879       -5.5745289393032846E-002  0.96132445843024228     
  0.30265669997408462       -8.0732385461196793E-002  0.94967426199647087     
  0.33491713990588851       -6.1078458187613469E-002  0.94026588332379868     
  0.33379904390108622       -1.6809679807664450E-002  0.94249436759881200     
  -6.9906432181518235E-002  0.11120618978405135       0.99133560114290475     
  -5.6562515264681527E-002   7.2423288725684862E-002  0.99576882312969051     
  -1.4180292855666706E-002   6.4938858142735825E-002  0.99778848660307007     
   1.5574739716536130E-002   9.4252003316288233E-002  0.99542653538753356     
   1.9180431564700048E-003  0.13300077821846884       0.99111407724021938     
  -4.0878831134778464E-002  0.14229040787179417       0.98898046542524420     
 -0.24176411629561040      -0.21641619688816222       0.94589330360049961     
 -0.20465679862333339      -0.21881910895399309       0.95406173402659267     
 -0.18760814456836147      -0.18107614819099119       0.96540903903367881     
 -0.20614911151060614      -0.14074738159084746       0.96834535079108419     
 -0.24347714474600621      -0.13799186335776722       0.96004016876034071     
 -0.26181838282164349      -0.17591899804314970       0.94894870279913102     
  -9.1665454053109687E-003 -0.52793103045970013       0.84923777678756818     
   3.2476147045546397E-002 -0.52124566469132816       0.85278851828197799     
   4.5590455193545959E-002 -0.48691843594554679       0.87225681260256582     
   1.6974476088692757E-002 -0.45985780164492213       0.88783031567288451     
  -1.1754337978094477E-002 -0.43172199130243710       0.90193012909235659     
  -2.4798648643398979E-002 -0.46600578633364892       0.88443407562634013     
  0.29778108743216208      -0.36926193122334533       0.88032496847296360     
  0.27067390297250293      -0.34596798241896470       0.89835504862530990     
  0.23272732480846703      -0.36320148303556571       0.90217663182342511     
  0.24867773608882615      -0.42633445662150576       0.86971162730584528     
  0.27565649902008960      -0.44928736766469846       0.84979665556232542     
  0.28711882000673378      -0.40987927795687229       0.86577234923477076     
 -0.97107942300786398       -9.7530205938485062E-003  0.23855739938222389     
 -0.96898598290000471        3.4083504390003870E-002  0.24475391656071288     
 -0.97506566886050361        5.8537412647157616E-002  0.21405679790699253     
 -0.98343833012418125        3.8508410307562156E-002  0.17710492138319087     
 -0.98516333424046298       -6.0477989222499319E-003  0.17151276627822706     
 -0.97886832719592443       -2.9885795046051388E-002  0.20229591510240175     
 -0.92471791926271207      -0.31665949056214515       0.21124283853272524     
 -0.93819627036173370      -0.29564148001729151       0.17995519879269439     
 -0.93669695342153347      -0.31771108824254352       0.14716820940188227     
 -0.92117926090522950      -0.36032014290527686       0.14696313787755069     
 -0.90681308357396051      -0.38128206402237319       0.17976100554326044     
 -0.90911876365926547      -0.35931739992742878       0.21069902627217052     
 -0.75034081967808741      -0.47701704156348324       0.45764986221219156     
 -0.77059699172373197      -0.44233349885040263       0.45882605869882265     
 -0.79277792750430021      -0.43682295384690933       0.42507512824728688     
 -0.79550252518874121      -0.46460604619381807       0.38899479978334406     
 -0.77445777885409417      -0.49958955754661194       0.38810491205698933     
 -0.75178338826760238      -0.50614568644888969       0.42265622107578837     
 -0.75528117522125715      -0.19523226345131395       0.62564743239629250     
 -0.73780901352683026      -0.23380778449408310       0.63322332511408164     
 -0.71197087330985720      -0.23447716612805231       0.66190477723231234     
 -0.72090247116146866      -0.15725611161394831       0.67495936354224262     
 -0.73745065585841085      -0.11841599604865716       0.66493923185040316     
 -0.74697302824348233      -0.15707733689255235       0.64603251103292436     
 -0.84331320649209585       0.17113743209504167       0.50944559581169679     
 -0.86567156838147152       0.16292716734517920       0.47335765953118286     
 -0.87662810821342263       0.12393740514359165       0.46493298387663268     
 -0.86553470588203063        9.4257692766320234E-002  0.49189954286223614     
 -0.84352147131438482       0.10163879762061288       0.52739082495797329     
 -0.83231139976416224       0.13958257923915648       0.53644611788656416     
 -0.33208209586621212      -0.90986667588761372       0.24872497605654303     
 -0.27149217393399872      -0.93857018404532688       0.21302114710448972     
 -0.30937084881890636      -0.90949483288525224       0.27768476165626443     
 -0.30896856692175656      -0.89806682908362578       0.31307250782206603     
 -0.33733965746063582      -0.87965550047937402       0.33527325568962840     
 -0.36811044683697519      -0.87384008980719674       0.31764476443856710     
  -9.8061594147029724E-002 -0.99497557202243503       -2.0187491968335834E-002
 -0.13858190568228398      -0.99033699908521211        5.2615264289860722E-003
 -0.15428125939160919      -0.98785061977063560       -1.8666708850521470E-002
 -0.14067848936206032      -0.98913685294718223       -4.2636237786100609E-002
 -0.11292331933956262      -0.99269731046540077       -4.2430811258978109E-002
  -8.5479878491832972E-002 -0.99542653831315253       -4.2652047956872240E-002
  0.11528639919621583      -0.99194746091105468       -5.2433586111216172E-002
  0.12546684854135304      -0.99147648429614221       -3.5106281558474804E-002
  0.11686939495035802      -0.99302415840946368       -1.5638584946012179E-002
   9.4402482908663321E-002 -0.99543143156792468       -1.4298121111240063E-002
   8.2390826441739382E-002 -0.99609094438826051       -3.1852507373056511E-002
   9.3802493916542967E-002 -0.99427446797148289       -5.1179824883069200E-002
  0.16110508526390210      -0.97431292940941749       0.15735141272880324     
  0.13668767683392857      -0.97877554633234720       0.15269220315248191     
  0.13033585304984147      -0.98279679560596733       0.13085497299076085     
  0.14750908872392940      -0.98229368149074281       0.11549974912180080     
  0.16134752802443719      -0.98185413990372339        9.9646490928297429E-002
  0.17030730450787920      -0.97796980779099030       0.12070823120447911     
  -9.6316926124412894E-002 -0.92554272170465790       0.36618809380082068     
  -6.3119273915034899E-002 -0.93776005484808089       0.34149968783552814     
  -2.6341117074497034E-002 -0.93534663964171150       0.35275034976910502     
  -5.3891385512087844E-002 -0.90773709525246549       0.41606379855762954     
  -8.5799895929933728E-002 -0.89259383924446489       0.44262243052204070     
  -9.1681252024318011E-002 -0.90990138560677680       0.40456645498375299     
  0.42328146206670147      -0.89532338251439825       0.13866810950486094     
  0.44550228418397769      -0.88428160860812499       0.13990622382254927     
  0.45245508952977603      -0.87718454477325158       0.16072232691678501     
  0.43439827466206082      -0.88226376446044741       0.18140779721584391     
  0.41302057542804638      -0.89311322594672904       0.17822112644721005     
  0.40766068081607099      -0.89967029042024238       0.15622463906738340     
  0.52402406712708360      -0.85161828986871224        1.2044311216498155E-002
  0.51468447837558984      -0.85732390769679301       -9.7777814839401737E-003
  0.52546179525231851      -0.85026337183676004       -3.0693651509622739E-002
  0.54582287705701682      -0.83736013632357975       -3.0089682240873161E-002
  0.55567323936422819      -0.83135712886726687       -8.5191159189119681E-003
  0.54487326824145554      -0.83841960594609977        1.2871904329260355E-002
  0.67219858972813062      -0.74033308691690625       -7.4817366698441707E-003
  0.68317863506683019      -0.72968929119568549       -2.8644212374594406E-002
  0.70172647364613716      -0.71194270657536118       -2.6786913564393344E-002
  0.70918748177905666      -0.70501625377462718       -2.2798248772064643E-003
  0.69687027427729720      -0.71691357978195358        2.0167794944143703E-002
  0.67829760714650411      -0.73459639398901677        1.6747957417546772E-002
  0.73079110675590808      -0.63807996038391113       0.24248365397061605     
  0.75330094972461192      -0.62061088761982497       0.21766902699219895     
  0.77551090947870527      -0.58927862772115391       0.22656903625735125     
  0.76390274839331773      -0.57912842568337097       0.28471539748077507     
  0.76105876080173207      -0.56313397609437987       0.32197777497067465     
  0.74181301270904176      -0.59862482267232131       0.30226110543049844     
  0.57499769415928903      -0.71341330232567435       0.40052354709339710     
  0.56269024731245199      -0.70174701298948883       0.43695630827324372     
  0.52994885680287740      -0.72093052707754257       0.44655725758408621     
  0.52389585406623429      -0.76033060481561121       0.38396680256623467     
  0.53520362546920297      -0.76863626039420119       0.35036463647440053     
  0.55495725650861571      -0.74251767865885754       0.37508657710919491     
  0.90936133922510032       -1.3474611355331748E-002  0.41578887619987476     
  0.92416753957607856        3.6947157823368098E-003  0.38196951170111088     
  0.92217630868183353        4.4627884796385575E-002  0.38418642298309841     
  0.90529577487656876        6.7682461126647775E-002  0.41935503388712619     
  0.88654597788569967        9.1529909381819666E-002  0.45349587074552788     
  0.89006651537891823        5.1072225765843124E-002  0.45296051257979741     
  0.95962296218862730       0.22028167793692807       0.17492785028581356     
  0.94945642660808882       0.26125593838664951       0.17400525460545715     
  0.93774748260397189       0.27807418071004109       0.20809711408943884     
  0.93618049019581828       0.25398096192347741       0.24302214046695886     
  0.95759563735032305       0.19635973859834083       0.21083986431702154     
  0.96787764371030705       0.17928806196575595       0.17626303538276875     
  0.78374336688613755       0.59647093396224227       0.17311487457810121     
  0.76544861915714202       0.60805896516277524       0.21060082221016932     
  0.77448911759107053       0.58515824570067210       0.24032568364932771     
  0.80138515822518130       0.55105024901985744       0.23264877225456029     
  0.81932206217864179       0.53874186574286798       0.19613403713591226     
  0.81073717223912212       0.56131874973735485       0.16621220996968031     
  0.65247593908116908       0.59544500333756201       0.46874342333570646     
  0.62184593799302412       0.62073163525589181       0.47749331554915231     
  0.60063556543808683       0.61289361179766944       0.51341828770358144     
  0.61118329651448355       0.57881798302097698       0.53983767985684084     
  0.64211163369179347       0.55343647040207811       0.53047216996421742     
  0.66206228410783152       0.56236277754418829       0.49540048283657012     
  0.70150483847376632       0.31827424139120253       0.63764603728459690     
  0.68031452923276559       0.30429413262597271       0.66676624251997607     
  0.68869608853995656       0.26249924553705262       0.67586377600981284     
  0.71833958681458099       0.23520975338438033       0.65472483527655789     
  0.73930292034240974       0.24940604862601412       0.62548206599545508     
  0.73083414413975245       0.29065667191824995       0.61757602999867323     
   6.5926687151954072E-002  0.86022203189689550       0.50563991907319261     
   2.6231494672335490E-002  0.86521582897265292       0.50071296965668877     
   1.1282003406073941E-003  0.84730948470797063       0.53109826236573654     
   1.3986796952934366E-002  0.82426652794370747       0.56602920456688699     
   5.3690707027904731E-002  0.81911065013998696       0.57111737042931154     
   8.0293068500140813E-002  0.83714211517544845       0.54106016500053644     
 -0.13635598175050684       0.97013725158034536       0.20060099535393444     
 -0.15665778900154828       0.95960922226746803       0.23368456877674124     
 -0.13293978353663888       0.95369100739907853       0.26981563401582626     
  -8.9735259853366028E-002  0.95744079492541423       0.27432591447335025     
  -6.9271790604255382E-002  0.96795857227756221       0.24136615624578259     
  -9.2284617562344212E-002  0.97462167927381094       0.20395129725223285     
 -0.43070846931560691       0.86128489375511286       0.26958958853978565     
 -0.41461122275742651       0.87951674812811531       0.23355475530533923     
 -0.43746925850076412       0.87659963955205034       0.20048371456057756     
 -0.47645308406583897       0.85527037513677495       0.20372786774899176     
 -0.49159747836186335       0.83681423932915955       0.24098516162663935     
 -0.46855541038734327       0.83988344893783218       0.27395550660105383     
 -0.51074591029745842       0.69978553042308533       0.49943851125529126     
 -0.54073582959004829       0.67341279345259597       0.50410313648293592     
 -0.53917952431232141       0.64672563430318020       0.53947325651739941     
 -0.50661128852664028       0.64707642470269977       0.56976934186681949     
 -0.47674910389723152       0.67348640433217477       0.56491269689475487     
 -0.47953353230965301       0.69938563556406197       0.53000690953730034     
 -0.24565226416053651       0.66609467014404711       0.70425340291580785     
 -0.23704524640127581       0.63841491174401588       0.73228133365629278     
 -0.19519371793892512       0.63569012604286812       0.74685840433698114     
 -0.16223808431330222       0.66131740051690469       0.73235107685584366     
 -0.17104413266211238       0.68894659299096328       0.70434117917952921     
 -0.21256094250194971       0.69087296340365412       0.69102271609588650     
  0.19236983454040391      -0.61626358889436184      -0.76368385851865328     
  0.20700087979104292      -0.60802563167657475      -0.76645643515469075     
  0.22450044304320843      -0.60440283566796016      -0.76439306859097811     
  0.23172266973329106      -0.61616051213045830      -0.75276213216580401     
  0.22396937399196265      -0.62927290888232534      -0.74421322593758377     
  0.20797723613553257      -0.63166105187198163      -0.74682647569392346     
   2.4901906376374461E-002 -0.47388897057102347      -0.88023243443419985     
   7.4261536096761407E-002 -0.51057242274176118      -0.85662186838310261     
   6.9184144460284952E-002 -0.53630927702581233      -0.84118126080610534     
   6.7418149662518759E-002 -0.56115741705060262      -0.82495887557209679     
   7.8935109656201492E-003 -0.50154678612363968      -0.86509451149205874     
  -8.6259967128141206E-003 -0.46652702664982310      -0.88446488092291486     
 -0.14476837286677555       -2.3394955419675588E-002 -0.98918895782272942     
 -0.11014799156118724       -4.7171078802619441E-002 -0.99279520006879252     
  -8.5513460692783996E-002 -0.11285718602994167      -0.98992459490697926     
  -9.2033034818795934E-002 -0.15146625914693701      -0.98416863028755153     
 -0.12236270922583144      -0.12895384171396676      -0.98407229109355776     
 -0.14951499668554194       -6.4496438434092057E-002 -0.98665367540765780     
  0.19596232818312309        2.2892966901762735E-002 -0.98034416303637206     
  0.18194143977360233       -1.6500388099929465E-002 -0.98317091580541593     
  0.14243763858510630       -1.9974972757524946E-002 -0.98960220269441335     
  0.11610651800947092        1.5571110142913751E-002 -0.99311470485771869     
  0.12857254893648673        5.4203924229625916E-002 -0.99021767014029982     
  0.16912322933307336        5.7961353489579912E-002 -0.98388912729108291     
  0.31853079857887906      -0.45717302871158505      -0.83038000468181905     
  0.28907560158184453      -0.46136188192382321      -0.83879706155768274     
  0.27333003380076959      -0.43823492636178468      -0.85629483353524405     
  0.28841784817636673      -0.40857822425588058      -0.86595552975728818     
  0.32022466261880805      -0.40429591376148766      -0.85673857130774389     
  0.33462781855712553      -0.42961875446659920      -0.83872042353710896     
 -0.14572637840703212      -0.84565822569053373      -0.51344521417412070     
 -0.13669671082472454      -0.85888453110216512      -0.49359028706318314     
 -0.15184637194881934      -0.86705025611917064      -0.47451715742390327     
 -0.16670738905353719      -0.87481004177798671      -0.45488024494294071     
 -0.17130753553596315      -0.84021369821159941      -0.51448485848096848     
 -0.15441507630649196      -0.83198855806150596      -0.53287055038160658     
 -0.29133617861608213      -0.88348388952416490      -0.36685071620569509     
 -0.29253301746903232      -0.89456977927214121      -0.33788954364326734     
 -0.31692326928255421      -0.89270799620794072      -0.32036241179898262     
 -0.34251271408622780      -0.87865158432318280      -0.33265061860102829     
 -0.34063847707892048      -0.86683626198716357      -0.36408834482509228     
 -0.31385384601189653      -0.86981305637948048      -0.38068492260047210     
 -0.66219967735217622      -0.68468955617029104      -0.30445327882288209     
 -0.69368258899527935      -0.65119236198123720      -0.30781970928142960     
 -0.72371090851509623      -0.61580895673551495      -0.31148330565308108     
 -0.72748838420568862      -0.59351161942757402      -0.34424498318821589     
 -0.70209896375169278      -0.60629937438389903      -0.37344091061437240     
 -0.66809704095352729      -0.66304002490528802      -0.33767479805685241     
 -0.67021519230868254      -0.48583536230789853      -0.56104865807680937     
 -0.68740616525300946      -0.44801552228569391      -0.57162475083154796     
 -0.67184059473098345      -0.42910361433905519      -0.60373860521974054     
 -0.63995233172426558      -0.44729949412806186      -0.62480731083547314     
 -0.62376238542926021      -0.48631267880384488      -0.61189906435475727     
 -0.63919171582001677      -0.50600967362375926      -0.57912706777203893     
 -0.26849269621607202      -0.69427151288986766      -0.66775649638789614     
 -0.25263881444001990      -0.71571609389347857      -0.65109454181416893     
 -0.26369983749901416      -0.73901268447478974      -0.61993761612629894     
 -0.29769111996744213      -0.73291854483290542      -0.61172739331547543     
 -0.31758650353613982      -0.70881881033114413      -0.62985292481057109     
 -0.30206050945613006      -0.69030447727531796      -0.65744899215129471     
  0.40247156483988861      -0.80609428731892641      -0.43385324644068696     
  0.40032384925155895      -0.81461367404579954      -0.41969676884391066     
  0.38960152305695500      -0.81290204620127671      -0.43289827501790579     
  0.37873559774111659      -0.80352401187084588      -0.45924776466593692     
  0.39141547269916022      -0.79621447769250542      -0.46134199163369427     
  0.40383996821122814      -0.79734605578923567      -0.44850033154112967     
  0.38089148862617772      -0.86986578495668154      -0.31345683922006001     
  0.38777619961645154      -0.87118859432494278      -0.30109807725914212     
  0.38031573238174216      -0.87865266194018576      -0.28866839689921858     
  0.36639943102210459      -0.88460107641110897      -0.28850024706919303     
  0.35980564159305445      -0.88319947936880483      -0.30082981886854637     
  0.36668216438382578      -0.87616074353953743      -0.31286824991206424     
  0.28751163723435808      -0.91600879531495383      -0.27975872704969529     
  0.27814806978009937      -0.92229808796967883      -0.26832794898235884     
  0.26291858200266993      -0.92573653194004601      -0.27181922792422425     
  0.25783503495296672      -0.92220949841303246      -0.28818524561050229     
  0.26848808636216520      -0.91547982127190997      -0.29968457472071242     
  0.28184784783255962      -0.91317666306725087      -0.29439798352148250     
  0.23224207011461315      -0.88058258137809187      -0.41308345191059803     
  0.21345289862813940      -0.88190144432184070      -0.42034236352085252     
  0.20714138105106197      -0.87351447706103369      -0.44052798619502892     
  0.22200010084043850      -0.86443359118683372      -0.45107706842031897     
  0.23869152975295641      -0.85577109706925381      -0.45900128871832069     
  0.24032838466902876      -0.86405683310897374      -0.44232121436809507     
  0.30329013240841246      -0.79078142245158212      -0.53167644060005170     
  0.30440319939197019      -0.79928185254768036      -0.51815751696552725     
  0.30511338240039659      -0.80754517692126970      -0.50475401049559243     
  0.29253868346153600      -0.80685992696486541      -0.51322332072582522     
  0.27849773494348201      -0.79775604489814500      -0.53481240118364770     
  0.29042536057570811      -0.78995472623687368      -0.54002281473146641     
  0.83403666952419908       -6.3704831613848892E-002 -0.54801872989710232     
  0.81196404620170060       -6.0680284125345332E-002 -0.58054482238172600     
  0.80403107893101045       -2.1174295061606483E-002 -0.59421012557989916     
  0.81866830623344033        1.5308843554669256E-002 -0.57406257818977258     
  0.84135173327261370        1.2032728246098991E-002 -0.54035402688434198     
  0.84877245118245137       -2.7398514335292248E-002 -0.52804795949416561     
  0.93134167532466117      -0.11372724558708833      -0.34593178144632425     
  0.94416120594629283       -8.5125535642916819E-002 -0.31829744008953070     
