          42
  0.39180593115259438      -0.44724392570941257       0.80402797415866190     
 -0.68891661932898252      -0.52210750195103173       0.50278986467388054     
  0.20552697360722785      -0.97760664477312109        4.5209636310133437E-002
  0.77853944823077847      -0.60447902024112221      -0.16876445608257598     
  0.82488312054680335       0.48365950990651041       0.29264537569208593     
 -0.22017261837466381       0.55933804845526669       0.79916516795234416     
 -0.15922691444694609        2.1662133013888925E-002 -0.98700432709740116     
 -0.33240416715259302      -0.85197791782168630      -0.40452576828159553     
  0.33990514644912079      -0.83374924075837531      -0.43511687504880137     
  0.83771518329069894       -9.1109159317912483E-002 -0.53845370531979242     
  0.22354581387056693       0.88676334289837300      -0.40457143101391674     
 -0.86163706291253384       0.49463061292502214      -0.11367554078551458     
  0.71492773077255767        5.2475291148684884E-002  0.69722642204040297     
   9.5730547583344969E-002   5.2603412872726088E-002  0.99401636969092955     
 -0.18782935178418048      -0.55814797682862216       0.80820230794674830     
  0.25908219709139968      -0.88490247774050756       0.38707107879432656     
  0.78568135252228333      -0.51019705051981290       0.34986251862644402     
 -0.94269772839407973        1.3911950194836618E-002  0.33335784154931541     
 -0.79394350340838082      -0.60290693280206809       -7.8466195108651687E-002
 -0.27184560458092727      -0.93893001585293789       0.21097486248468522     
 -0.54681431601557517        2.3442925367309679E-002  0.83692564368087174     
  -1.1224345717736889E-002 -0.98422881040375254      -0.17654365702121066     
  0.28851257685081538      -0.93003739063423219      -0.22757624001896831     
  0.51502677875023650      -0.85386641122890394        7.5230106641072936E-002
  0.50810164736409535      -0.81842073610326216      -0.26836582245525797     
  0.59438045254941507      -0.59442730348812711      -0.54163461714977790     
  0.99857562176928194       -1.6051890367539033E-002   5.0882849996051215E-002
  0.78065440172864142       0.52625726258742911      -0.33709345682715736     
  0.44506720155843299       0.88587994579628027       0.13088891371283087     
  0.36173995604486125       0.60871970063792402       0.70611934561796141     
 -0.12400645603327140       0.94960736074055418       0.28786847567843793     
 -0.67045741061180575       0.60902781665824612       0.42375934100878809     
 -0.63271307219832718      -0.33665635700702801      -0.69737842349481316     
 -0.65863484565046160       0.32717235730210675      -0.67761227019024317     
 -0.14462601500926386       0.61218219557129283      -0.77737782011583756     
  0.37062300408710663      -0.31579651842545492      -0.87344785064238939     
  -9.1320018473202813E-002 -0.60019899623894057      -0.79462055041373170     
   3.9110519628219008E-002 -0.85417616454389711      -0.51851079755342400     
 -0.95940863771473872       -6.7523255471597238E-002 -0.27381686553035151     
  0.27073568946837429      -0.68148432810958537      -0.67991271277209631     
  0.42454185597804761       0.34751208606289752      -0.83606193703751874     
 -0.41895093531733835       0.87256775762405281      -0.25120832420853334     
