607
 -0.13396008868178264      -0.71080150638209971       0.69051858278058442     
  0.40912848026304799      -0.51532883365264992       0.75302727695870908     
 -0.97792893305446094       0.18517282128441387       -9.6778242144266058E-002
 -0.80026917098936245      -0.57600305291596154      -0.16670254045901794     
 -0.65544551216648395      -0.70595574025460306       0.26836108768297806     
 -0.74872270417842834       0.42954434548959580       0.50488213228995982     
 -0.21291806147779599      -0.95500989755434151      -0.20645094979143042     
  0.17470408198611637      -0.96727345557821476      -0.18401235249615094     
  0.26119544245843479      -0.95741512555849528       0.12301714592183122     
  0.43587224909477779      -0.88811256544548045      -0.14584736393540773     
  0.74218327018042562      -0.65655782867030521      -0.13452067155654346     
  0.90002665257100967      -0.25374213942338536       0.35435427377508255     
  0.99845697684600399        5.3561070303337947E-002   1.4658688055178688E-002
  0.71614460438583760       0.69748210151655188       -2.5605149347480941E-002
  0.32842796829302778       0.76818132082798418       0.54957486111892684     
   7.2646781529170923E-002  0.99621029349142076       -4.7827777234470549E-002
 -0.61130502735875902       0.78770905539255753       -7.6292906475449104E-002
  -8.3630737457511872E-002 -0.57086844671068571      -0.81677115295683744     
 -0.30881075220042564       0.12729289918013689      -0.94256694040461797     
  0.24523336454997399       0.29873809622470660      -0.92228853770148167     
  0.48692422454979484      -0.45205990753022229      -0.74735977918961349     
  0.28711556863881987      -0.73504532773814113      -0.61422554197585755     
   3.0113917261225996E-002 -0.87175982463925172      -0.48900711664772845     
 -0.75301384824871498      -0.23445730324640629      -0.61481697870186047     
  0.54327954141368673      -0.71407993882200893      -0.44151690890982903     
  0.78232846314020088       0.24710424276276133      -0.57175315387790704     
 -0.20614332389956777       0.75359925826656893      -0.62417392444070829     
  0.21888703935864140       -3.4727306407294884E-003  0.97574402593236786     
  -8.7186481195383220E-002  0.11769120308574872       0.98921549634697714     
 -0.29678455855453539      -0.11617378296634490       0.94785155902961837     
   5.8005786928101898E-002 -0.53252662110934390       0.84442331001264825     
  0.24866641038395731      -0.30995426407443255       0.91765645561333808     
 -0.98581773936415451        3.2097760561042792E-002  0.16472133596445224     
 -0.91108740204839578      -0.40346061285691992        8.4494258395605815E-002
 -0.78849127078564185      -0.47147784748200799       0.39495589023152444     
 -0.77571251396536467      -0.17719350551267404       0.60570005554041684     
 -0.87672185486417675       0.12498878845890372       0.46447453316957305     
 -0.38050999627707416      -0.89080367604927213       0.24835650478762247     
 -0.11234333492108510      -0.99356083482203206       -1.4691582847179288E-002
   9.2523877231625681E-002 -0.99493652713161518       -3.9250976055479191E-002
  0.12140771799726208      -0.98554503805057558       0.11815728494082259     
 -0.16528950336687509      -0.86842923454121557       0.46745057992357886     
  0.40608703952397740      -0.89374374417254532       0.19056609373939440     
  0.51642126252020659      -0.85572358654130165        3.2345371445188911E-002
  0.67243635829587156      -0.73914632107173317        3.8627193632319562E-002
  0.75378709849174386      -0.55743350099819966       0.34795531625811993     
  0.51477060178987277      -0.69799251585063860       0.49781289190758021     
  0.88786470721513922        3.2738532910110397E-003  0.46009297274181893     
  0.94069042943040848       0.24332910110612357       0.23641587199872921     
  0.79422924653940763       0.55535851265040725       0.24652956489673297     
  0.60495174698659537       0.59947261886016989       0.52408583557924537     
  0.65453433236805680       0.30260927185479497       0.69282929812401328     
   1.8803729428098416E-002  0.85295804611470394       0.52164067261648750     
 -0.11457538273997174       0.96984644255548325       0.21510546141942286     
 -0.46372085907041510       0.86314559641244426       0.19985655920385051     
 -0.53820966262233016       0.68072185706704635       0.49693874106488134     
 -0.24188180946663135       0.67550978769221659       0.69654843118132470     
  0.24959852878856859      -0.62735041672164893      -0.73765305467120212     
   4.8587012509203234E-002 -0.51584334597313108      -0.85530400714054589     
  -2.3330600254958901E-002  -4.1948501182430722E-002 -0.99884733885628929     
  0.24891062358087518       -5.2507526041260322E-004 -0.96852631650593302     
  0.31002757360026917      -0.35604375791365817      -0.88154168707909097     
 -0.18521015895884399      -0.84012655455590501      -0.50978874972724098     
 -0.32951929007334291      -0.87176279248859978      -0.36255574895736897     
 -0.67791575488970646      -0.62628684186435446      -0.38496106423882981     
 -0.56379416625201895      -0.48419824099852082      -0.66909506164231192     
 -0.18491022712780375      -0.72145848210630337      -0.66731242046017158     
  0.40587948239590016      -0.81103835799925406      -0.42128212355132033     
  0.38471887197617249      -0.88275212070489306      -0.26970369470290051     
  0.26692251070771861      -0.91622138976320622      -0.29881555886176142     
  0.23152344708552819      -0.87165553171605703      -0.43198787885591505     
  0.31147770107015510      -0.80406190851967152      -0.50642481080981272     
  0.85246237408886860       -7.3336635744805409E-002 -0.51761920232966985     
  0.95952198042845094      -0.16087387176436452      -0.23116480367522685     
  0.80316038367922316      -0.53038754400269728      -0.27133457438194258     
  0.69437376381177296      -0.56912872936078240      -0.44038343014474712     
  0.67338695236069301      -0.44464913511718418      -0.59062438065992318     
  0.10740753532009314       0.79669755264959086      -0.59475762370785590     
  0.25310816562490263       0.91710882112150116      -0.30797348378574302     
  0.57811928325321682       0.76058208387304604      -0.29545386784085514     
  0.62022327597737714       0.53181813826764279      -0.57662167471005521     
  0.34034203787255085       0.55514621582860524      -0.75893344656032835     
 -0.88096700959332519       0.31454770725005449      -0.35349238728992199     
 -0.69766822869543188       0.62729355767304051      -0.34606622945742405     
 -0.49159007910589225       0.61393920076810149      -0.61759035928751937     
 -0.54268067997879399       0.28573060680171813      -0.78984536455845322     
 -0.77522747574683626       0.10417457812512544      -0.62303291896948809     
  0.50500069055002739      -0.18428133240955541       0.84321687190743189     
  0.71814082449262095       -2.9411999283435103E-002  0.69527598153194536     
  0.39605859411441996       0.49915820846774223       0.77070011868909361     
  0.16068338723415712       0.33108946821834889       0.92981751602228324     
   8.6985158336374380E-002  0.62971706218432222       0.77193911924655201     
 -0.49641782223798059       0.45031539025715278       0.74214917305218964     
 -0.40904086568449710       0.17244002974612199       0.89607477720401985     
 -0.59051497027708544      -0.46225475500350527       0.66152294847216164     
 -0.29526203664762063      -0.43446386536421538       0.85091802155524010     
 -0.68030933836028717       0.15359642707683685       0.71665008318496570     
 -0.45618892075249123      -0.70565016499946154       0.54217111064580892     
  0.14485682078254375      -0.91657386333701785       0.37270478199270252     
  0.20603437930662138      -0.75040398866797253       0.62804752076171155     
  0.68585227449969777      -0.38213231813835430       0.61933960716056147     
  0.29634496460255505      -0.88738720450199149       0.35316230155673611     
 -0.91076155836720885       0.35639686395802067       0.20855373207262753     
 -0.85144817393755923       0.51906569668555180       -7.4878632617982374E-002
 -0.92575643866040647       -3.3096569126627499E-002 -0.37666912986180273     
 -0.98020736422247734      -0.17322930081716420       -9.5839096732075107E-002
 -0.85827070512168424      -0.37691506311718753      -0.34829072902575736     
 -0.57067749154576941      -0.80181654210632292      -0.17724963595925267     
 -0.72380160731540777      -0.68000126220238000       0.11708764516720881     
 -0.36974688566325142      -0.92898096497600779       -1.6781157724421656E-002
 -0.73167708605168058       0.64512404782960053       0.22014450858214238     
  -8.0869081016400876E-002 -0.93043263657528597      -0.35742873489847543     
  -9.8814721691440517E-003 -0.98239683976622338      -0.18654438004160703     
  0.10564173450677330      -0.93808433641974043      -0.32990544356578239     
  0.30012205368211764      -0.93546924028200629      -0.18661203975047796     
  0.24173809872460383      -0.96833264463726043       -6.2406577816947334E-002
  0.35708302909803913      -0.93399354900155751        1.2155688118903800E-002
  0.48717908843937635      -0.82051760331482981      -0.29901069953743448     
  0.59178049980526859      -0.79439205681462921      -0.13688352757015543     
  0.64123498560880554      -0.70871494980308503      -0.29417819966286696     
  0.92487175544403777      -0.37581381218591603       -5.8105202453422149E-002
  0.82082249484348058      -0.56604176558379027        7.6466669691506006E-002
  0.96158904223126795      -0.17891758787875828       0.20817062859202715     
  0.93973271450741247       0.17964941033770998      -0.29090980500808661     
  0.91527138761443538       0.40145475374117762       -3.3352177034737487E-002
  0.42175343649625990       0.90642874465916823       -2.2604638001957989E-002
  0.54174167516301375       0.79731267679620232       0.26609857724468644     
  0.80604102657503296       0.50085583455699856      -0.31534314082928722     
  0.22773250051866703       0.93840169571378984       0.25988490854414564     
  -8.9989139932354384E-002  0.93299938759176881      -0.34844525746179927     
 -0.28789723613978457       0.95471464609034729       -7.5067476070906441E-002
 -0.41951691205438496       0.83261367592919400      -0.36160755959469171     
  0.17524160500129582      -0.70077467728933374      -0.69152384741713713     
   1.2892831126096276E-002 -0.76585177153538675      -0.64288788987012646     
 -0.36460562177108685      -0.43320237913698578      -0.82425629465778083     
 -0.27983855269668634      -0.20640514613040417      -0.93759655506806894     
 -0.56177551413439464       -5.6189890107830029E-002 -0.82537928733928545     
 -0.28741227760351484       0.47697375988764562      -0.83059630089556902     
  -5.8981255384934157E-002  0.29612242441179409      -0.95332718479738032     
   2.5709101072727319E-002  0.57288345918611006      -0.81923353466089788     
  0.54009409732486069       0.27336483801971312      -0.79597112470823961     
  0.52535737998830145       -3.4248765692359961E-002 -0.85019212260545984     
  0.66855373368272075      -0.19093893445664276      -0.71873376746014617     
  0.53913275685377127      -0.59504722344741012      -0.59603244236767894     
  0.37268106786663246      -0.61982027424773001      -0.69060238146509123     
  0.40764148279306539      -0.72934169675292093      -0.54944436559477172     
  0.18720224136595426      -0.80149817433314297      -0.56794013537361643     
   8.9841796719878450E-002 -0.11161323441689786       0.98968224065360633     
  -5.6070892289710281E-002  -5.7831219454444395E-002  0.99675052299672640     
 -0.16979479936495503      -0.18001665322599208       0.96889820449308683     
  -3.1657209253235269E-003 -0.39422050083675025       0.91901043243863378     
  0.10870890753723950      -0.27545637089914626       0.95514719344880650     
 -0.90550682606963950       -3.5550907663691907E-002  0.42283982890164828     
 -0.95714284816380935       -4.7895563033081491E-002  0.28562840063728767     
 -0.92965747274761634      -0.30222791188856590       0.21070185722957527     
 -0.86845805458863123      -0.33257621619967564       0.36765971745411075     
 -0.86018428865221341      -0.18643419961759669       0.47468439912096516     
 -0.22033416527186209      -0.94987449017789460       0.22179113716115129     
  -4.6022136455737717E-002 -0.99618202428760094        7.4184482489985062E-002
   5.5096444920585831E-002 -0.99716824394057868        5.1184714843157904E-002
   3.0421170443992340E-002 -0.98700058146280711       0.15781129421210094     
 -0.11911482379558382      -0.93720680721046978       0.32780338508091139     
  0.49456761343467703      -0.84080167913739012       0.22012590056890877     
  0.54400538625807937      -0.82967471362922385       0.12529169679776653     
  0.61963406232619722      -0.77643480400051768       0.11490267160432796     
  0.66019854146375312      -0.69261649437133699       0.29055167797466408     
  0.53439272560249540      -0.77252690411904956       0.34296734135391471     
  0.87103733754974855       0.16279246742211664       0.46345719235422866     
  0.88910855805775124       0.28291574604246844       0.35978417506847071     
  0.81214437938571782       0.45081889498901967       0.37038335674415307     
  0.72094876597291968       0.48603766648836044       0.49396382822700052     
  0.72426665897752240       0.36561979350322837       0.58460240616353421     
 -0.26536272652059867       0.77309581216978662       0.57611239231515587     
 -0.13518920072756210       0.86167623056909270       0.48911956992016048     
 -0.20204248967866931       0.91977443068518505       0.33644290603635607     
 -0.37492917436268619       0.86685888447830628       0.32860886873719802     
 -0.41271213634612369       0.77625239798188650       0.47655105407499554     
  0.21977798757369207      -0.58159893750304625      -0.78322430508340690     
  0.16937065342519050      -0.52924514601630646      -0.83139230040727619     
   9.2446982884567298E-003 -0.20977949555739489      -0.97770501624837758     
  0.13615415324681665      -0.12078545145504438      -0.98329696494520080     
  0.17465766226537072      -0.42725503623468047      -0.88710080319211615     
 -0.25382575400035295      -0.77417347293198469      -0.57985163655419814     
 -0.30134833972290753      -0.82330352522854200      -0.48099946308961994     
 -0.54430557100238552      -0.68763935512744390      -0.48050344707991449     
 -0.48407069541832948      -0.62015027003889178      -0.61732422956490574     
 -0.31792293078237177      -0.67948687836905575      -0.66122809393357085     
  0.31825235865258489      -0.83317625750088598      -0.45225298246543799     
  0.35659502347227789      -0.83668076084473730      -0.41569856105966629     
  0.36446570654140420      -0.87332403726381425      -0.32321799871372725     
  0.30806539283913020      -0.88828981336191815      -0.34064192521226894     
  0.29612025438269468      -0.86403542702594327      -0.40713090743448116     
  0.84626200518100125      -0.23687523977765354      -0.47721141998836331     
  0.89755899089130420      -0.27776159653949140      -0.34239794590215716     
  0.77494517828544296      -0.50016343640410199      -0.38638906239253579     
  0.73721210485128064      -0.47057336636561020      -0.48484948110530302     
  0.75612155297170236      -0.35920187598168801      -0.54704132332292521     
  0.25770288846095513       0.78139443529002428      -0.56834140952130563     
  0.33169612598401421       0.84166494133448244      -0.42611947448528925     
  0.49187645904548227       0.76311119169182473      -0.41918833255657428     
  0.51421890992751240       0.65040380329174030      -0.55906511725969810     
  0.37301548183090844       0.66114280389490498      -0.65096055423692034     
 -0.75182461038449877       0.26388174203726111      -0.60425671815841397     
 -0.80306534379650163       0.36736763192344113      -0.46917702054551830     
 -0.71297058680887748       0.52306533309757841      -0.46698565251720980     
 -0.60920903670390136       0.51679999003503385      -0.60148326651544803     
 -0.63430860725531424       0.35333584038222393      -0.68760917290508206     
  0.49358401323804418       -1.4058535675174311E-002  0.86958448666618704     
  0.60162767968352593        6.1803863771283822E-002  0.79638208007309985     
  0.56640512521230135       0.23340636659105479       0.79038389543815946     
  0.43082147968517837       0.33311826204048728       0.83870440331322849     
  0.31676042874866533       0.25283496291182073       0.91418669444941059     
  0.34651353951167274        8.1247141727273847E-002  0.93451980658316747     
 -0.29744333295829278       0.30615806552606289       0.90432002222222263     
 -0.13022375267566361       0.27730714077023355       0.95191518735489533     
  -3.7314108777260226E-003  0.38806207002169901       0.92162568669896328     
  -4.2355187677029948E-002  0.53331182954679501       0.84485769839795732     
 -0.21062141037779303       0.55845682808707486       0.80234942054780145     
 -0.34004182908430419       0.44512738706918342       0.82839191434607939     
 -0.57841571237739609      -0.31219233747891562       0.75363864556855120     
 -0.44103516215142874      -0.30312675449332227       0.84474975966638077     
 -0.42638326915608593      -0.14090739918021067       0.89350009101288708     
 -0.49590992970966119        1.2347158926906035E-002  0.86828617936818075     
 -0.62437768213464284        4.3688099724988484E-004  0.78112247387152101     
 -0.67254334619174516      -0.16540794602846920       0.72133602355896076     
   3.8982050493939720E-002 -0.74203245676383789       0.66922958156996537     
  -3.7015506815396358E-002 -0.62835199783530460       0.77704801593696937     
 -0.21051125210675420      -0.59574890556651872       0.77509241658833294     
 -0.32114404024321330      -0.68300744245566491       0.65602388597248262     
 -0.21007015096780560      -0.77958669980882611       0.59001280422847302     
  -5.3648975035930607E-002 -0.81884214633257979       0.57150619145119319     
  0.36628440435067183      -0.73442444283238739       0.57136369581888091     
  0.47212278206762415      -0.61069736655321927       0.63572698946771933     
  0.55535182602801691      -0.45670832053393079       0.69498335180234605     
  0.47560636009247031      -0.35711134754937934       0.80390924592957491     
  0.33147089042661371      -0.41457333817267417       0.84749985019240759     
  0.31193703339706796      -0.64279883313396247       0.69964630158177277     
 -0.99466563612650460        5.5971508819274715E-003 -0.10299972917955064     
 -0.99320400617261240       0.11073107047874138        3.5838975338385731E-002
 -0.95807392731416674       0.28149452156494037        5.3433923023995446E-002
 -0.93017932401068482       0.35747866027785474       -8.3519055484215884E-002
 -0.94006494413117725       0.25347244103378580      -0.22810002729508963     
 -0.96794148907824618        7.6768011053293853E-002 -0.23915673981702634     
 -0.77031329054699393      -0.63681523587414768       -3.2920962398086930E-002
 -0.86810005445523131      -0.49448631268451154       -4.3423288941532974E-002
 -0.93672797175995459      -0.34201777225882479       -7.4595913973838357E-002
 -0.87843967731517525      -0.43382916970801749      -0.20033967362672561     
 -0.78606358481737115      -0.53521441431336336      -0.30927264886385752     
 -0.69553158419547900      -0.68567862788976475      -0.21466400406620773     
 -0.60547714096513494      -0.78776074304847632       0.11327154753246126     
 -0.46219374143257691      -0.87918047070016181       0.11583887654841224     
 -0.52875048562421989      -0.80782899540117525       0.26045198816918147     
 -0.56629975207870498      -0.71391225678064107       0.41186633804423634     
 -0.58929117912621054      -0.59800877267523989       0.54325078371548963     
 -0.68744422631284596      -0.60028220004665356       0.40875630394684059     
 -0.72293039279254345       0.29801884792044181       0.62334293407480890     
 -0.63400368372155858       0.44351432778134620       0.63350956589474972     
 -0.65200393807711110       0.56407112255332714       0.50667014263065480     
 -0.75253610434283258       0.54639683288575069       0.36761380914341957     
 -0.83974664069185423       0.40522745619651512       0.36140875500082614     
 -0.82443501947813358       0.28159111568820600       0.49093109722603717     
 -0.28414850530634572      -0.95099018852615058      -0.12197248976374239     
 -0.32342164153433739      -0.91607207742822105      -0.23708730616289406     
 -0.24165707954772694      -0.92002894476982311      -0.30846166162132621     
 -0.14400273326832935      -0.94954789274760654      -0.27860727232043003     
 -0.10932429377034747      -0.97553498067553046      -0.19073463311629391     
 -0.16854782221907813      -0.97969571564220748      -0.10857226338945412     
  0.20624612565630995      -0.97083316146098497      -0.12225182313336114     
  0.13339148851218752      -0.98418445310365044      -0.11656617460297633     
   9.0548947871078034E-002 -0.97856742122497753      -0.18495050731624979     
  0.14381805955483967      -0.95683622718570105      -0.25254860936246309     
  0.21996846228119085      -0.94424052594861319      -0.24499735663458611     
  0.24023044935910498      -0.95290987863469090      -0.18507321362407148     
  0.26939964303413638      -0.94337501601114437       0.19356500587413314     
  0.19549232788194573      -0.96659378513230854       0.16576852621319368     
  0.19496797663500279      -0.97722626648952593        8.3763429787676036E-002
  0.25379575903927393      -0.96558966705489679        5.6782986628852020E-002
  0.31622072520889538      -0.94552203001032098        7.7411521839593475E-002
  0.33220473035345444      -0.93060409898459606       0.15367507307256031     
  0.51105890727374437      -0.84691998501388965      -0.14678328338145069     
  0.48015637706038350      -0.87522834541574734       -5.8525182178787029E-002
  0.39797443036615110      -0.91495452723238502       -6.6892195895337569E-002
  0.35250063265961584      -0.92425247308429848      -0.14663106755435054     
  0.39263420515841402      -0.89588570718716209      -0.20791147298160056     
  0.45350635502507186      -0.85950587905801268      -0.23575756576743476     
  0.66937035785879362      -0.73139362279596110      -0.13040971034930549     
  0.69179551169493936      -0.69052695169397471      -0.21116699311910453     
  0.75661792568547093      -0.61210743543186796      -0.22989954767340659     
  0.80740974712143299      -0.57027121790321400      -0.15126215086560352     
  0.78526927268401703      -0.61769409603698544       -4.2499095277031287E-002
  0.71332775567258244      -0.69936482184684345       -4.5302968448540808E-002
  0.80095059791984635      -0.29917930155862482       0.51862306660110491     
  0.83418952308314731      -0.40168768458049153       0.37785558568674699     
  0.84174119452552365      -0.48888264152220628       0.22905354015385712     
  0.91208231344657786      -0.34243386264036979       0.22548814428952799     
  0.87292972254506129      -0.15990772290957606       0.46089393535961892     
  0.80676651814167366      -0.10888710811720345       0.58075070632021875     
  0.98250832325731929       0.12212237618234301      -0.14058278687545442     
  0.97370486890608010       0.22736022066212710       -1.4358214689229409E-002
  0.97941047785869695       0.14867882078081862       0.13656399273536216     
  0.99242911122961297      -0.11070525890688861        5.3186509890754699E-002
  0.97339485127405689      -0.21560849776402699       -7.7559262535793622E-002
  0.99270292266895788       -5.0190558106912427E-002 -0.10964403860413871     
  0.77444278010103307       0.60880948606910656      -0.17201566795397796     
  0.65383841847990676       0.73888612206822135      -0.16291906314081128     
  0.57871123724972795       0.81525579119579139       -2.1243794449516282E-002
  0.63584260678219351       0.76257653495808619       0.11908487616714225     
  0.76309289313658513       0.63644990381342037       0.11234213982439638     
  0.82879456853596978       0.55860041888402845       -3.2636408930272642E-002
  0.28553677849248732       0.86621715828195101       0.41004461077555160     
  0.17526507899885882       0.82178007342415549       0.54218047088263277     
  0.21062393266230589       0.70992831710877413       0.67204117698022670     
  0.36092776702742235       0.64646159765477529       0.67217449352547909     
  0.47309299734217763       0.69347813371850153       0.54338852943368099     
  0.43857400518946138       0.79881079984963654       0.41176953264618582     
  -1.2550764689407724E-002  0.97991635842600011      -0.19901358947277409     
 -0.10880988693567938       0.99198291607933120       -6.4267431190231622E-002
  -2.1860507157666294E-002  0.99609202603164670        8.5573324716167812E-002
  0.15567906412298116       0.98216377886668915       0.10544354165191031     
  0.25106250443913075       0.96744877817582098       -3.1788055474700851E-002
  0.16548082049357435       0.96955202850136868      -0.18051305237476545     
 -0.45761521469925631       0.88564681177693783       -7.8854550059579906E-002
 -0.52037608240497335       0.82517130185391407      -0.21977501099435573     
 -0.66332663974311357       0.71697109213674992      -0.21436002903373969     
 -0.74391524866483560       0.66428840628617580       -7.2876718351668701E-002
 -0.68405011301818608       0.72603611637214316        7.0334917381500314E-002
 -0.54376823948520336       0.83683846277384644        6.3383664689476205E-002
  0.10450472888750439      -0.66747428253686547      -0.73726307637914845     
   7.0774366395949207E-003 -0.69878990588509149      -0.71529195250870659     
  -9.1451811284197757E-002 -0.66548698104473958      -0.74078582888227418     
 -0.23182341148907812      -0.51238898084193296      -0.82687087153758843     
  -9.4671113985135572E-002 -0.44443504666750261      -0.89079451585114078     
   2.1348437955296191E-002 -0.61900268208619735      -0.78509867135727784     
 -0.29608644985289795       -3.9655463196592529E-002 -0.95433760192720640     
 -0.43879685292638959        3.7749441776633683E-002 -0.89779301707434156     
 -0.43421887957415850       0.20998369234315789      -0.87599133190420131     
 -0.30563555047415547       0.30346865996490413      -0.90249303748309628     
 -0.17927433035628293       0.21256335965386353      -0.96056105095301925     
 -0.15832442714616343        5.0156954143825414E-002 -0.98611239507464532     
  0.47174189839972908       0.12618983503120637      -0.87266013248515983     
  0.32603863778084696       0.14133363453997988      -0.93473183877608934     
   8.6799276751218804E-002  0.29827196135016792      -0.95052602417176835     
  0.14122100002099827       0.44148358401439736      -0.88608626792139811     
  0.29859966062355292       0.43281869133656520      -0.85059169000478840     
  0.39722016006856692       0.28388748571877387      -0.87271074239256108     
  0.42111258310743466      -0.54034908714054719      -0.72848270835687046     
  0.37719150641664179      -0.46770658944358895      -0.79936044040106879     
  0.44408856583977063      -0.35228989307531078      -0.82381865536497889     
  0.56477728567305496      -0.34092767362952725      -0.75152840195253778     
  0.58696539599168907      -0.44330150603416646      -0.67746247029349116     
  0.51668373352254671      -0.52780163363500510      -0.67413897309488169     
  0.33108141024884230      -0.69088805013205690      -0.64269650844886517     
  0.34414198226081771      -0.73450577037156661      -0.58486542839910305     
  0.30030506482233144      -0.77139936237999918      -0.56103466181848882     
  0.24315598808303765      -0.76715799076669922      -0.59358553104178902     
  0.22974978394246634      -0.72592437197966442      -0.64826602791162802     
  0.27366873814627196      -0.69745996325475368      -0.66231036638278939     
   1.8570791957687124E-002 -0.82617610574993794      -0.56310582306874768     
  0.11039942047937051      -0.83935163203733820      -0.53226009220500081     
  0.13465094062560359      -0.87794559600708144      -0.45943514737165103     
   6.5808081835061788E-002 -0.90942886825371538      -0.41061956839872621     
  -3.3066017448516720E-002 -0.90095704488343442      -0.43264655524458234     
  -7.4119223372754214E-002 -0.85289523365028785      -0.51679402196933433     
 -0.66826966517013120      -0.14851910411270533      -0.72894288550404296     
 -0.54236217068722714      -0.22404725762250827      -0.80971976767229314     
 -0.63354499143379095      -0.31800012279989553      -0.70533443537687079     
 -0.81586829196584387      -0.31045463480637814      -0.48782870958152413     
 -0.85260840469196275      -0.13852486917883630      -0.50385490854770143     
 -0.77659458518833402       -6.3631800173719499E-002 -0.62677894369770526     
  0.59802684310180643      -0.70952046964193616      -0.37275273049137259     
  0.51952368205139887      -0.77165044497055069      -0.36694786355081588     
  0.46580876101714597      -0.77365196688809490      -0.42951697555492918     
  0.47677283673918219      -0.72190558269569449      -0.50153762752206643     
  0.54810267021666736      -0.65719404442150298      -0.51737747426638792     
  0.61807409677257352      -0.64466106819061098      -0.44988500537149245     
  0.80906354169190708       0.37855481653100426      -0.44956916752166770     
  0.87240857855183140       0.22126938348707556      -0.43582465740297732     
  0.83031912671556340        8.9293656776248939E-002 -0.55008798448050977     
  0.72821562861539368       0.10985937256702161      -0.67648571049170536     
  0.67033380167330037       0.26309983029527451      -0.69385234281712860     
  0.71114505871535927       0.39597851665340317      -0.58092488310770329     
 -0.31380275277835051       0.80826274468618176      -0.49823605640408009     
 -0.15490309564564086       0.85667461589238170      -0.49205043790757652     
  -4.9411114313453373E-002  0.78801333692181619      -0.61367216216449572     
  -9.3633443837089145E-002  0.67400427434990107      -0.73276941554166275     
 -0.24933035908267032       0.62645924520834340      -0.73850063380656583     
 -0.35573444800155279       0.69459435797826252      -0.62529327548742752     
  0.23859053586810097      -0.16299418921158804       0.95734395620248713     
  0.37066405806918273       -8.6050612421147893E-002  0.92477210606593829     
  0.19276773572808376       0.16416400318863500       0.96741448207030134     
   6.5975540967901536E-002   5.9586641946928379E-002  0.99604049119274329     
 -0.24940523832860645       0.15763155417077160       0.95548381473678456     
 -0.19895768278528420        7.3740299912556674E-004  0.98000780440643787     
   3.4837116890686332E-002  0.22953909650588192       0.97267578280843825     
 -0.30402013015418988      -0.27496718661577241       0.91212104829657148     
 -0.16056541667364763      -0.34702245007894517       0.92400983009361104     
 -0.35555514608771971        2.6683422715559957E-002  0.93427433500162205     
  0.13937702436001051      -0.64831208289629361       0.74850884313494825     
  0.15895491069860460      -0.42677931688870280       0.89027678338863292     
 -0.12151861239878724      -0.49631986575869586       0.85959282087157018     
  0.37955951829683321      -0.24966647006377965       0.89084298605094692     
  0.23936176439988688      -0.54051876423173417       0.80656395360614275     
 -0.94230410210692916       0.10160274975768795       0.31896686410053743     
 -0.96199145792026786       0.19695911804359162       0.18915480619833064     
 -0.99691768161792893       -7.0308454870050205E-002   3.4811740136336575E-002
 -0.97392882214614107      -0.14703269157772006       0.17275426767649296     
 -0.96782349868354633      -0.24627603812596222        5.1631273864967957E-002
 -0.82792777193958800      -0.55041667191403143       0.10759689461239572     
 -0.85996041456648209      -0.44944088187981018       0.24180773162523730     
 -0.76751391053446405      -0.58544688625525176       0.26110216488977073     
 -0.69974326240175266      -0.47205371764170984       0.53621325457693858     
 -0.79150737419451878      -0.33363723578088134       0.51205690259598158     
 -0.69456975584132619      -0.32558023963298166       0.64153749838263607     
 -0.73781226482350393       -1.0767343487203238E-002  0.67492008874402321     
 -0.83216362596960258       -2.3255066684932501E-002  0.55404232824451494     
 -0.78914259106763573       0.14086561039765957       0.59783848217587421     
 -0.90339803091300352       0.25483996600092901       0.34486024628993289     
 -0.28246307531829418      -0.88567974233835178       0.36849152648765532     
 -0.43544168059118393      -0.80989802476412220       0.39300856515742588     
 -0.30186746861342623      -0.94752179380279400       0.10525436647311930     
 -0.16081204307033939      -0.98283644411624160        9.0399175441401330E-002
 -0.22858727321108038      -0.97343141036151848       -1.3384612340590405E-002
  -6.2928782881179257E-002 -0.99252637058374027      -0.10455320167723847     
  -6.8900655134790881E-003 -0.99969921213845192       -2.3537464752568769E-002
  0.17202247090890127      -0.98359410344377030       -5.4322271427489362E-002
  0.14284327129753518      -0.98941586354256350        2.5535246529890632E-002
   3.9803405617607271E-002 -0.99325684427346828      -0.10888769537992547     
  0.21168801887080402      -0.97732715090391298        4.4522772369077175E-003
  0.12112552662482429      -0.96603887263565213       0.22824877514829517     
   2.1707478013584757E-002 -0.95821908030150837       0.28521041275595344     
  -2.3116237252861992E-003 -0.90276737514201544       0.43012291589143237     
 -0.32848578319875565      -0.79689685357403095       0.50700344673395414     
  0.41847497123091204      -0.85780790982408706       0.29840289592515395     
  0.33164981521243797      -0.91084298863451441       0.24571009365693924     
  0.38764829714743237      -0.91652166662560375        9.8573994159319431E-002
  0.46527482621978594      -0.87718690498537044       0.11858528495700776     
  0.43709670337108114      -0.89908624503027790        2.4298063698330510E-002
  0.55769995590782651      -0.82809448607742653       -5.6835563765757165E-002
  0.59310105594988527      -0.80460325613462191        2.9064370777554402E-002
  0.63667791799854878      -0.76946289445877314       -5.0676254638245641E-002
  0.74484909249074982      -0.66456075121473090        5.9655991824955193E-002
  0.68488973284543964      -0.71182819146796072       0.15564921996063669     
  0.75984459279400751      -0.62011497684156280       0.19517584455689413     
  0.73343426955325730      -0.47206548419007954       0.48910975341048524     
  0.64022281603430253      -0.63440270867694903       0.43318350505583386     
  0.61145304748296314      -0.54874535942865277       0.57009095873317961     
  0.40751334927599092      -0.80785400927811291       0.42579897822228602     
  0.94074794085541336       -7.6718400285934282E-002  0.33031439392473766     
  0.94276602537857801        9.9496768754505457E-002  0.31826500655788553     
  0.77708122025738802       0.21731805468755980       0.59069250903503390     
  0.80541895531260133        5.9676173721654839E-002  0.58969403991654934     
  0.93869615977760401       0.32845681574097618       0.10471695093000609     
  0.88310166683968161       0.40321104870590835       0.23990059655294207     
  0.98281526081359460       -6.6598201702085863E-003  0.18447170489591774     
  0.67792353950408746       0.68922392015682798       0.25571480690391085     
  0.70616562019268048       0.59563571205229149       0.38281616395581686     
  0.86507900671107318       0.49035303543306996       0.10579325493318258     
  0.58005452204512031       0.70871160216758033       0.40157765924920225     
  0.49894556246870780       0.56482968379781273       0.65728285691447008     
  0.62067919201633559       0.46932049873084108       0.62808885523386193     
  0.69675804574032019       0.14053480996369583       0.70340471485809486     
  0.53217038939131234       0.40633633246124340       0.74275531743437873     
 -0.10712415918214126       0.77280404681756765       0.62553842387331404     
   5.2941706283079870E-002  0.75239596361277661       0.65658014718314284     
  0.12523402052311813       0.90970513688552868       0.39592045164110518     
  -3.8084337302156719E-002  0.92816106507146756       0.37022509441913104     
   5.8506037010935659E-002  0.96879798362186709       0.24084748402978917     
 -0.20383394393198417       0.97649635477442487        7.0047072839578672E-002
 -0.29429622346218243       0.93436775538518191       0.20086470708502746     
 -0.38122514714110101       0.92237051674590398        6.2450116294045142E-002
 -0.60794826693375714       0.76501740891492576       0.21247886668874733     
 -0.51782350795821774       0.78095400588421793       0.34924154291727438     
 -0.64421096764761820       0.67304607625403334       0.36331970549582027     
 -0.52519363054941937       0.57260697389837245       0.62951799328793501     
 -0.40072459818243727       0.68203792726028256       0.61175490369103025     
  -7.7325266906286605E-002  0.66252894739446733       0.74503435958501307     
 -0.37513436842804171       0.57139246295386892       0.72992113197495923     
  0.27162377173301117      -0.49353620092063805      -0.82622184975365820     
  0.29755593835128280      -0.65016021631651066      -0.69910811515183791     
  0.23179714129932724      -0.67628915338018436      -0.69921603693406031     
  0.13190941602974740      -0.59822714990705717      -0.79039495385330638     
  0.18590166285280954      -0.64320172718421376      -0.74278671898183846     
 -0.12097922592074385      -0.28822800719464792      -0.94988875283594099     
   3.5090353913021802E-002 -0.37233196739261398      -0.92743602103854272     
 -0.15034400138065457      -0.12571716595920471      -0.98060791116125490     
  -1.4153645390994885E-002  0.14510887904009784      -0.98931445331900025     
  0.10019111676579444        3.4646052078548741E-002 -0.99436481795998466     
  0.39094908637829251       -2.8683042253360467E-002 -0.91996526833738146     
  0.28597193296731432      -0.17264212522439470      -0.94255755800531482     
  0.16793816901363709       0.16362988047225926      -0.97212243755865513     
  0.31845584603666799      -0.56790464559214637      -0.75899287719973274     
  0.41927606264578277      -0.19980199540886684      -0.88559965329876045     
 -0.12658179007587309      -0.88689926069622216      -0.44428228841321399     
 -0.23117286386716832      -0.87754149884080923      -0.42009525684501320     
 -0.14708926799595951      -0.79449143183125726      -0.58919276301320223     
  -5.9184002425054429E-002 -0.80218692621509391      -0.59413246777678363     
 -0.16636317826764385      -0.91606621035054914      -0.36489175267560031     
 -0.44516412510098408      -0.84944886092757288      -0.28331172653443842     
 -0.43196604469545530      -0.79733052405919236      -0.42150844787934871     
 -0.75565598656397104      -0.47361847544240315      -0.45240421051272861     
 -0.63357059625315570      -0.55711330535593695      -0.53685478908062612     
 -0.57615455579258690      -0.74770881879322570      -0.33011732783706776     
 -0.50090413782257004      -0.38964554073529839      -0.77283335674472842     
 -0.39530932413409836      -0.55075571506153220      -0.73511814055953129     
 -0.70123224040490251      -0.40322112380277286      -0.58795073801803321     
  -8.0919618858830700E-002 -0.74119593318065302      -0.66639373040283223     
 -0.21566040166636982      -0.62743008267945288      -0.74821259178254607     
  0.36135861293166727      -0.80550461006686003      -0.46966187414046850     
  0.41031397839716482      -0.77321131863984438      -0.48351493861009526     
  0.44755696988820448      -0.81643604641855438      -0.36486290687452577     
  0.39290360438828892      -0.84334763067976459      -0.36659450553100009     
  0.42177223893905075      -0.85219274362514630      -0.30963802443011751     
  0.33894885675127850      -0.91222691112268950      -0.23012113142985838     
  0.32612201452024486      -0.90107764362702603      -0.28583826161104353     
  0.19848520846063586      -0.92931327518770557      -0.31141685661222285     
  0.25148222461681885      -0.89667895284600441      -0.36431242941295411     
  0.28124206226471976      -0.92847058238061508      -0.24258046101631725     
  0.20311161450208468      -0.84110680473109412      -0.50128336805583906     
  0.26989268200459698      -0.83697922322289109      -0.47605012350966924     
  0.16827801076220461      -0.90710158465186763      -0.38580983167356697     
  0.35483075073915904      -0.77234318309353234      -0.52685970225367895     
  0.25675527894059286      -0.80420359834933997      -0.53603479284288258     
  0.76914259461315848      -0.20790313028656995      -0.60431445255660077     
  0.76193323704257909       -4.8375446879144968E-002 -0.64584638918945758     
  0.90984338491182182        5.6413343236014810E-002 -0.41109919683348217     
  0.91902840354352766      -0.11131801107058560      -0.37814692103932818     
  0.96458666046283315        8.8341669778925665E-003 -0.26361815557917445     
  0.92383161207656306      -0.32481727580705433      -0.20255589318828154     
  0.85018778092469127      -0.42617188941377587      -0.30912498740775002     
  0.86594564354747039      -0.46652289813325154      -0.18026238636639946     
  0.70352959039267815      -0.64758715977011616      -0.29270631346587755     
  0.73923169380723575      -0.57973358080073356      -0.34270319251918957     
  0.66803070630245942      -0.64256681763941847      -0.37529036798962417     
  0.61217948430308045      -0.59134360296761823      -0.52492763522955266     
  0.66798563245144527      -0.52589426913379533      -0.52652674436411473     
  0.59965396370051249      -0.52301975671228196      -0.60569419504143329     
  0.67100766556250191      -0.33960783657797650      -0.65910183590336624     
  0.22202312733711052       0.68580450472309984      -0.69309300402539986     
   6.5870010550757904E-002  0.69368766524310932      -0.71725766973913008     
   8.7767666668241602E-003  0.87880356127983594      -0.47710299626889141     
  0.17212652259786540       0.87393596188144629      -0.45454196148289511     
   8.1952982239183764E-002  0.94029787916907481      -0.33033862494755883     
  0.34155665901240989       0.92496578661333917      -0.16666536016535405     
  0.42359366132200382       0.85616997412671292      -0.29587393513400806     
  0.50727558179522281       0.84666107848341010      -0.16073737056337303     
  0.70332257726593894       0.64032970569780456      -0.30873163153289029     
  0.61693091722784477       0.65313842544099798      -0.43909730195124641     
  0.72270515532316126       0.52384543894047686      -0.45086939857411523     
  0.59003236213216825       0.40837717357835990      -0.69648395224648496     
  0.48968890972896217       0.54192989185691021      -0.68302032473449714     
  0.18473908504377215       0.57144170733767086      -0.79957854246609039     
  0.45022860016023469       0.41962079150885834      -0.78817041236729679     
 -0.87895251302255495       0.42440830134478363      -0.21753177607184371     
 -0.80583852164172631       0.48104792442274297      -0.34527839701731700     
 -0.84575940661255300       0.20446542693586806      -0.49283355741499119     
 -0.91794928446205559       0.14275541874673545      -0.37012160376563330     
 -0.56725724661748511       0.74247272799094066      -0.35630529655007986     
 -0.59678982668775415       0.63951113270171478      -0.48463121433990408     
 -0.78517297620323923       0.58159907732518112      -0.21271086172230436     
 -0.39324345282404116       0.55334391578693842      -0.73428202870055570     
 -0.51961815877613682       0.45888137352703512      -0.72071135283138088     
 -0.46268371982855122       0.73512677334936383      -0.49549208117846621     
 -0.56141890879912393       0.11437911568008381      -0.81958905967505635     
 -0.66598261156403782       0.18962602791018116      -0.72146318730296344     
 -0.41904485429001070       0.38638150995109521      -0.82165122701848103     
 -0.86216142435211007        3.4771767321436726E-002 -0.50543901962203575     
 -0.67823123822840070        2.1545092465935806E-002 -0.73453263813244174     
  0.60560533602670741      -0.28871737497386024       0.74154194376594917     
  0.62153415019184355      -0.11488087192236446       0.77491785720272321     
  0.72176528888619351      -0.21377218743314336       0.65829804772540412     
  0.24639883461179465       0.57479738779042133       0.78031761308537539     
  0.28297983104123658       0.42037088121941851       0.86209671003123700     
  0.12381884004529657       0.48792647053587379       0.86405824699509837     
 -0.59949871224576412       0.30941975186043058       0.73814680868665949     
 -0.45676593596137555       0.31548266463176844       0.83176653458898420     
 -0.55271276670583092       0.16421759822905113       0.81703193202730318     
 -0.47280637165329664      -0.58518918943266218       0.65879264377737901     
 -0.46248051504237198      -0.44147957654136821       0.76890022545385994     
 -0.35276530544867657      -0.55268175631338434       0.75504934640727606     
  0.22022844182066645      -0.93756167526720635       0.26921652713641270     
  0.10459499427459933      -0.84005806271746553       0.53231789227497817     
  0.25496583811491685      -0.83651424901298155       0.48501168294444785     
 -0.83340516264626685       0.50738812773381048       0.21907332724302128     
 -0.89366227751312577       0.44373116668432355        6.6860941236435850E-002
 -0.80152792626799063       0.59354932817744388        7.2471914785243299E-002
 -0.90536870810226411      -0.20843081751788228      -0.36995147884292123     
 -0.96562013050202333      -0.10142592935938728      -0.23935443263670714     
 -0.93474323343467969      -0.27400679943933842      -0.22621971931971416     
 -0.42257569476783907      -0.89460050078567332      -0.14532627493161959     
 -0.66233544780642184      -0.74775490516188814       -4.6629994482119234E-002
 -0.52765669481822364      -0.84905273567970629       -2.6227170040147817E-002
   8.7790130243787304E-003 -0.93823394793025738      -0.34589013845659294     
  -4.9733407920756423E-002 -0.96145830308207958      -0.27041545734501876     
   4.6880330759257613E-002 -0.96383829122239018      -0.26233181843117220     
  0.31774783127443390      -0.94552606820374485       -7.0829161138339550E-002
  0.27359109320755076      -0.95337898311380276      -0.12734374061723153     
  0.28402900102564499      -0.95881441132070189       -1.5656372856280650E-003
  0.56846758515134266      -0.76795529805299245      -0.29510890332983924     
  0.53701123136678597      -0.81367310925085234      -0.22260954307481673     
  0.61918221093712533      -0.75545554529722780      -0.21424357338945191     
  0.95803888227611567      -0.27643031865674011        7.5814108017335055E-002
  0.85639559569378643      -0.51397618588505400       -4.9143300859192184E-002
  0.89750475900893445      -0.43246796586012709        8.6351989329247383E-002
  0.88617699489174107       0.34549440263364811      -0.30874577158798738     
  0.94166576447378048       0.29463980428633652      -0.16264370183969609     
  0.87067738661821736       0.45976968963800025      -0.17473614658063241     
  0.32737636584873792       0.93739103600652507       0.11883922205352415     
