607
  0.16449864359645627      -0.96560775339624449      -0.20135010016382845     
  0.20060933614365184      -0.95988625814143158      -0.19589350597517102     
  0.32515256057624831      -0.93429784628650658       0.14616205655061276     
  0.29863170034464215      -0.93638004364576388       0.18442212831226448     
  0.28242378239098537      -0.94705707162462960       0.15270792456762239     
  0.26816414357905810      -0.95614678253305008       0.11777657810535487     
  0.26035166027704343      -0.96196843450340341        8.2666462426174897E-002
  0.29185055219979106      -0.95239297822433300        8.8152539439668831E-002
  0.45764391845675872      -0.86645202579009595      -0.19955683627423657     
  0.48245596185378292      -0.86188978250113746      -0.15614815942521754     
  0.46547090538150282      -0.87744130635694828      -0.11590336553325811     
  0.42473216067932218      -0.89711642213309561      -0.12159242091424829     
  0.40449164449906100      -0.89980369403008886      -0.16352315352955782     
  0.42113176742340031      -0.88476512189356893      -0.19959637658910862     
  0.73406723024553877      -0.67124991874084949      -0.10280490294750609     
  0.71178148776655259      -0.68721121762624948      -0.14528542955671914     
  0.72299393157619207      -0.66438829231805363      -0.18938841552402569     
  0.75775101532072908      -0.62349338201976789      -0.19253415634104035     
  0.78162757729325150      -0.60618628337942249      -0.14695754576517883     
  0.76727635324556165      -0.63236691243834309      -0.10676650131660631     
  0.85428879310461459      -0.22055703341250565       0.47068593880435394     
  0.83379261302436414      -0.30105677020804628       0.46276851619130549     
  0.84819709459268977      -0.35762686792814713       0.39072331906404467     
  0.88492769010354244      -0.33123717313076506       0.32739107871832474     
  0.91027718407582825      -0.24777292581021329       0.33166854747839314     
  0.89430420912657271      -0.19320059221693331       0.40360068471884608     
  0.98646508625751350        9.3111847812355472E-002 -0.13496969064173295     
  0.98591131522569386       0.15059762160105519       -7.2795843823998993E-002
  0.99234982937799043       0.12336514325504537        4.7809583908828340E-003
  0.99926521414668068       -1.2569504084216417E-002  -3.6208277554522682E-002
  0.99291508373093451       -6.9662782356057745E-002  -9.6263873046973689E-002
  0.99295124239537624        1.0893838454231057E-002 -0.11802183911976613     
  0.74917621884657859       0.66187954680255767       -2.5504090636295152E-002
  0.72202736429897962       0.68495993206898464       -9.7500649554351837E-002
  0.66037359631332804       0.74493793719029788       -9.4732164690064388E-002
  0.62448997273827389       0.78073980798932963       -2.1392198814867969E-002
  0.65275473745692103       0.75591826027405473        4.9988363763904267E-002
  0.71547474438556513       0.69690984654744526        4.9117776126640041E-002
  0.39071128170202180       0.78123508337891945       0.48684334117731953     
  0.31371621526974325       0.81449903576590676       0.48803018043276414     
  0.26317344215235572       0.79019397134333380       0.55347378167202410     
  0.28862747632198321       0.73240761497799589       0.61666300799889617     
  0.36643768403519617       0.69905508626368562       0.61404023490956405     
  0.41739274098046170       0.72382152392133192       0.54942306220709181     
  0.10359097074353375       0.98825014435658043      -0.11238577739024787     
   1.5264984840338759E-002  0.99245301265411079      -0.12167168081194459     
  -3.1216011250277762E-002  0.99804905966840041       -5.4070649493456802E-002
   1.1561353507997297E-002  0.99966805917705526        2.3024043221003699E-002
   9.9591704220696714E-002  0.99449318021173105        3.2631380031721571E-002
  0.14555525414593237       0.98869854974506599       -3.5900497524637441E-002
 -0.57910795184680219       0.81523135228523980       -5.6411310019371793E-003
 -0.53742764692678413       0.83957752652333428       -7.9253399142874631E-002
 -0.56682908009938504       0.80982095541260646      -0.15131032393164123     
 -0.63717794805505945       0.75608421083996646      -0.14946882160119249     
 -0.67819422898347304       0.73093177863044800       -7.6100740874464862E-002
 -0.64921224516634646       0.76059870647045202       -3.6150299510353530E-003
  -4.7090719855569160E-002 -0.62864305187420799      -0.77626694985279787     
  -2.9988310755706113E-002 -0.67089630457828897      -0.74094456588952384     
  -9.0369968275097037E-002 -0.66034824175582096      -0.74550215857766222     
 -0.18591401218341630      -0.60474367191220935      -0.77441660064593310     
 -0.13969061359492344      -0.56631416394938572      -0.81226522773277821     
  -6.2873944013398464E-002 -0.58359475256453885      -0.80960733194761436     
 -0.28153724692569426        3.7125968021271140E-002 -0.95883181063833312     
 -0.34968765542960195        7.5470113805083561E-002 -0.93382161335149860     
 -0.35166431664193620       0.16513634855677090      -0.92144570908225332     
 -0.28702654415959328       0.21543502177133997      -0.93338283375160880     
 -0.22259114155324639       0.17490223799285801      -0.95909456825023898     
 -0.21930991598314761        8.6248563208468132E-002 -0.97183555506882935     
  0.37052000868859120       0.21897872795874909      -0.90264236542662590     
  0.34287929890394464       0.14023956459035358      -0.92885232997858569     
  0.26793251730122419       0.13773483696784672      -0.95354144160496235     
  0.23871607678124998       0.29045526252836507      -0.92663389488823844     
  0.25071597215193042       0.36496216035148732      -0.89662931182261030     
  0.31636180160141025       0.29319224936507948      -0.90219372387517471     
  0.51072660049245555      -0.46913586358036419      -0.72046504498977992     
  0.47850831973287122      -0.51161363548077587      -0.71363945794537476     
  0.46019194723965795      -0.47496398163783266      -0.75008838668686795     
  0.47641318937905419      -0.37798227622077490      -0.79382609672940285     
  0.53527404359457531      -0.37325882428141682      -0.75773316434610882     
  0.54585405147923471      -0.42262020379779747      -0.72348843655279871     
  0.30352076124014915      -0.71183272491207172      -0.63337928545260713     
  0.30734566493039500      -0.73378051371746245      -0.60589173945270980     
  0.28567444424157634      -0.75152151171712722      -0.59464739916497611     
  0.25827829894063081      -0.74842895303604628      -0.61085712122697067     
  0.25316757509454502      -0.72845193049846046      -0.63660345889243652     
  0.27624201309461849      -0.71036536490608959      -0.64735724182499954     
   2.3199625349088659E-002 -0.85637811803508757      -0.51582777778474054     
   7.1381696290737207E-002 -0.86104597757234169      -0.50349228190822093     
   8.7136974041824258E-002 -0.88172256896357648      -0.46365122574528522     
   5.4682948675257935E-002 -0.89883481358174655      -0.43486291290203843     
   5.3383673073551458E-003 -0.89553821014494939      -0.44495259972818713     
  -1.0167634431967158E-002 -0.87395606062427034      -0.48589857306660689     
 -0.74186927931797986      -0.11682726397048940      -0.66028884800319831     
 -0.68169342508343034      -0.15435132847099789      -0.71517112749135758     
 -0.66281655449346666      -0.23550749270601898      -0.71078156698716777     
 -0.70352245735388386      -0.27863686702788870      -0.65377186260318310     
 -0.76392794484438664      -0.23755589725399603      -0.59998440876882853     
 -0.78291865126178906      -0.15597348670238334      -0.60225464460834388     
  0.56402462543057152      -0.68846611786102252      -0.45595024560282482     
  0.55941044242245075      -0.71645444052304852      -0.41683688843901956     
  0.52098505995490119      -0.74791758164133293      -0.41133181055635365     
  0.49012561189358300      -0.75088755045996625      -0.44265649337852542     
  0.49447224535004547      -0.72450585550482560      -0.48019627645131230     
  0.53054564041924457      -0.69273131623446860      -0.48851268861739333     
  0.74821137914582392       0.33775354657538847      -0.57105365237642147     
  0.79432172040360238       0.33556653106262296      -0.50640705734187696     
  0.82942616961844950       0.25955169220934587      -0.49465659625980141     
  0.77160733153580363       0.18991269449928030      -0.60708755084272592     
  0.71763551418673488       0.19337373316553930      -0.66903353286630063     
  0.73568176255894524       0.26569918930768166      -0.62303794831406889     
 -0.27317406842098435       0.72020030670989899      -0.63772050818308701     
 -0.25587943891356557       0.77856976082129825      -0.57302254779017658     
 -0.18078191788262524       0.80265072004012672      -0.56839222354439878     
 -0.12487205011124614       0.76781392597584153      -0.62838582588930136     
 -0.14165781696112784       0.70891333053656636      -0.69092326106548241     
 -0.21606059303405659       0.68503201390287105      -0.69573627192058085     
  0.18011127832916876        4.1530038808292466E-002  0.98276914038609009     
  0.18668247192853601       -4.5222762116467058E-002  0.98137890565326946     
  0.25681824379090817       -8.5796235774152088E-002  0.96264396096539229     
  0.32330088007258678       -4.5958612824857560E-002  0.94517953154493650     
  0.31716860723162987        4.0465078588584551E-002  0.94750548916698518     
  0.24359841021801795        8.5350359018594085E-002  0.96611341505780335     
 -0.14807721491467490       0.14167664176175562       0.97877518746759429     
 -0.12367929724305909        6.4130043735939113E-002  0.99024783207229972     
  -4.2379528300193980E-002   5.1757653014425122E-002  0.99776005178373994     
   1.9303754979294496E-002  0.10711129720723360       0.99405962349060484     
  -2.0836186472287517E-003  0.18484070058756899       0.98276628652982878     
  -8.7474681684088479E-002  0.20457912377597270       0.97493361937073575     
 -0.28353717408979390      -0.22997031993768394       0.93097815380218951     
 -0.20717233760309545      -0.23431857639483658       0.94982863048466071     
 -0.17747141543000047      -0.16036300544566598       0.97097250382784039     
 -0.21941722771769215       -8.0109509586573854E-002  0.97233664265751141     
 -0.29437281149921857       -7.4234467319839667E-002  0.95280317574606421     
 -0.32836408278230561      -0.14986076855942793       0.93258714294446110     
   5.6088834860179973E-002 -0.55465267616629987       0.83018940695818877     
   8.4027457608690931E-002 -0.48526504593014708       0.87032018336140626     
  -4.9841060105138099E-002 -0.44186712062253330       0.89569487909686507     
 -0.10399902902551489      -0.37850489585717989       0.91973813978430596     
 -0.12928056944850286      -0.44900178610733910       0.88412891053029719     
  -7.3740398473769203E-002 -0.51244217894829924       0.85554974540797391     
  0.30055940613685533      -0.30061033187874697       0.90515052436067811     
  0.24654846376014447      -0.25066328136475174       0.93615264481438498     
  0.13952856939477595      -0.34309370128131750       0.92888023472551784     
  0.19484732322698273      -0.39756835722045714       0.89664592898663564     
  0.24833743438149805      -0.44988190674282513       0.85786641656510554     
  0.27551597808761824      -0.37692630500410418       0.88431753709534466     
 -0.97188426761699565        6.9301309550565474E-002  0.22502955106641589     
 -0.98001619472804746       0.11525251190457432       0.16212685332924906     
 -0.99371610236869257        7.3537300973540193E-002   8.4383489254125796E-002
 -0.99716289612140196       -1.4715203253454769E-002   7.3821550999607383E-002
 -0.98884147576980064       -5.8271272065947129E-002  0.13710213218334363     
 -0.97780635433393515       -1.4899663925909482E-002  0.20898022260269930     
 -0.96352062368615066      -0.23545868407468865       0.12722898972037433     
 -0.95807167891649470      -0.28003200800821443        6.0669041108429744E-002
 -0.92904532555024233      -0.36436699625096525        6.4120785368656424E-002
 -0.90839621196421616      -0.39646705090241435       0.13277876199831440     
 -0.91113938709335562      -0.36342270139123561       0.19429090920740757     
 -0.94061062200213663      -0.28015735404447412       0.19173814109757245     
 -0.80469915467796016      -0.37216778709032450       0.46254773668548765     
 -0.84297631441847110      -0.36779461684834014       0.39257872222884643     
 -0.84548870138713994      -0.42528966712333044       0.32292035374812522     
 -0.80578239754087544      -0.49401885253583522       0.32658858086659331     
 -0.76606505901608601      -0.50319151746708524       0.39992827119853963     
 -0.76659148189199577      -0.44154837681150733       0.46623227132595313     
 -0.78472587206061162      -0.22401643637325977       0.57794631407539754     
 -0.73752337024490344      -0.22202242958675131       0.63778156064831093     
 -0.71989921611817631      -0.14175643463521628       0.67944847624521687     
 -0.75233344411465164       -6.4262255729063994E-002  0.65564071819495684     
 -0.80078755544690505       -6.7486463485502801E-002  0.59513432793579468     
 -0.81450767950875158      -0.14718224463753968       0.56117254644603243     
 -0.89370969368848863       0.20415816988415422       0.39950272223951211     
 -0.91510294716362905       0.12712274702718060       0.38265703087844033     
 -0.89546163812882695        6.8403287728100948E-002  0.43985161687508234     
 -0.85520228311026736        7.8979069178214442E-002  0.51224150709868177     
 -0.83281564426811694       0.15582066546916915       0.53116666205158858     
 -0.85184108459535812       0.22063339699666021       0.47506596460398853     
 -0.26394574755220113      -0.95203154987277594       0.15481786200548653     
 -0.22454124219929991      -0.94998044623591649       0.21706769064281420     
 -0.26079740596584533      -0.92070902360036488       0.29030950191536770     
 -0.33972379255587160      -0.89130038483109464       0.30028547878876477     
 -0.41546914982457556      -0.85668938568392994       0.30572648233434913     
 -0.38080519213066238      -0.89490375183663584       0.23266860681029197     
 -0.13530966803272990      -0.99009630155429973        3.7424689516006950E-002
 -0.16604268664539282      -0.98600713451467425       -1.4824199733567174E-002
 -0.13791119157413612      -0.98863171504943070       -5.9898541192779979E-002
  -8.4349309066386255E-002 -0.99492519615525488       -5.4854791180450502E-002
  -5.6159520586392508E-002 -0.99837660940278461       -9.5002128874114161E-003
  -7.8846654516990841E-002 -0.99618723747122062        3.7338893541937188E-002
  0.13699656653652803      -0.99013141567103380       -2.9524912505834566E-002
  0.12219483282197718      -0.99245659007668952        9.9166347597724452E-003
   7.6933658803013102E-002 -0.99684097910139957        1.9730041240317783E-002
   4.7090116839925145E-002 -0.99875683953444927       -1.6349201178050964E-002
   6.8429393326874782E-002 -0.99594542355680749       -5.8396330579646424E-002
  0.11284138808373388      -0.99164078467753636       -6.2572959810575896E-002
  0.13059584631751958      -0.97500275500359113       0.17976193328960935     
   8.6710784726240220E-002 -0.98479725727374867       0.15051777927627630     
  0.13205630507925101      -0.98259248274718514       0.13066424582699890     
  0.17035345429234527      -0.97903404417022244       0.11167829227904955     
  0.20622844145126085      -0.96934681971009307       0.13355363362526732     
  0.17769727707916744      -0.96300458866858796       0.20259772931080305     
  -7.8069749406686845E-002 -0.92016314284206435       0.38367291379844881     
   5.3011449186205518E-003 -0.93331061841585461       0.35903090036202562     
  -2.3361285425555923E-002 -0.90185641400294425       0.43140382342419681     
 -0.13952042329063669      -0.84048209074407831       0.52356843547263643     
 -0.19296471394695028      -0.85794324581799775       0.47612814044818902     
 -0.16319364793213073      -0.89965167046955641       0.40496259715675026     
  0.43564125981740537      -0.88968562107333926       0.13666085174639633     
  0.44942427183994599      -0.87474739295960946       0.18120381450593409     
  0.44977215496007855      -0.86303137617546410       0.22996054522298343     
  0.41132078487599427      -0.88760600293614200       0.20729398322363696     
  0.36461138648403457      -0.91776566491648404       0.15736810714561561     
  0.39466828644044272      -0.91028180963294980       0.12499588285030386     
  0.49689827353926713      -0.86568814557084428        6.0631183163522069E-002
  0.48146725306726307      -0.87633095777239745        1.5275361651256760E-002
  0.50587392679915921      -0.86226215298297693       -2.4403887353457807E-002
  0.54676375885426032      -0.83702380770744633       -2.0988981263709381E-002
  0.56384658131096121      -0.82556395410611660        2.2829595366880888E-002
  0.53927983977432314      -0.83937882068600544        6.7973890551821958E-002
  0.64622393858880800      -0.76260559840734887        2.8763213877064143E-002
  0.66763966695306221      -0.74436977457745446       -1.3073400717249739E-002
  0.70630461049205917      -0.70782420885844732       -1.0894335756419080E-002
  0.72508307149692475      -0.68766969552619295        3.6944949363864145E-002
  0.70037713971633231      -0.70868653734656339        8.5060295946506229E-002
  0.66074657157773342      -0.74657004332672428        7.7763349692538369E-002
  0.76360649801280500      -0.60664791968437803       0.22109594689916093     
  0.80663698020589536      -0.54074195366346622       0.23861039732696429     
  0.80920772542484654      -0.49427770413296296       0.31760416922608770     
  0.76333412170932946      -0.51969572630893557       0.38371522082199766     
  0.72106680354881925      -0.59445738976390772       0.35592566158535122     
  0.72290497304583079      -0.63307095120681001       0.27682046651884556     
  0.60676567640058177      -0.66140023711664109       0.44089130211900901     
  0.58481796257678775      -0.62580011469625263       0.51610286483771028     
  0.51820010484209988      -0.65614842828157505       0.54857806318267543     
  0.49946025111438425      -0.75254597283674030       0.42920160335669810     
  0.51630742483607095      -0.77876566586903540       0.35630139029016278     
  0.56160528781881769      -0.72480557992194972       0.39906938244865292     
  0.92989562100781675        1.6691459337142202E-002  0.36744459339563496     
  0.92277405077239938       0.10248760466218579       0.37146243701309106     
  0.88793079204613568       0.14323930136865623       0.43710572071266857     
  0.85825395632189461       0.10876460010278452       0.50156794975585972     
  0.86604653245328378        2.4885212243253817E-002  0.49934369910638848     
  0.90211394619172447       -2.5976466660358456E-002  0.43071527865428449     
  0.94600815292513241       0.30383572261699465       0.11292664991483588     
  0.92403272873682341       0.33766447623368495       0.17929366333758570     
  0.92822637929424279       0.28411923999569849       0.24015004944110968     
  0.95312436203265505       0.19497756672313987       0.23138214921330433     
  0.97481515875579428       0.15829138278446106       0.15709629020476165     
  0.96756069660578770       0.22453652989365863       0.11580002213746227     
  0.74836181546201674       0.63224656030934934       0.20054645380906280     
  0.75649701641791467       0.59582968066305164       0.26962799519293074     
  0.80920603667143520       0.52873867658232054       0.25616596592928575     
  0.84753062079851393       0.49762774866739667       0.18454937161936880     
  0.83673724644834480       0.53515462145746029       0.11610474382541111     
  0.78831443382490118       0.60331040782256939       0.12073485510112797     
  0.67112805921796159       0.60356264997391473       0.43046400045392652     
  0.60847142529091469       0.65285540444901136       0.45115667509875168     
  0.56207370200199203       0.63897421370017926       0.52515246142812044     
  0.58316423100850401       0.57165372329034114       0.57717545020604455     
  0.64658078800652297       0.52136707744056732       0.55687490080084001     
  0.68706194583427516       0.54040551515950697       0.48570336808756792     
  0.63920812805342719       0.33553695871175115       0.69197392896618726     
  0.65490573258361506       0.25049023455611419       0.71298886654781746     
  0.71515071852605294       0.19370984753417575       0.67159209700528544     
  0.75735636417392649       0.22045081221100329       0.61466476801648529     
  0.73991101512599522       0.30390561269706956       0.60014420622583531     
  0.68297875114816142       0.36254427232338732       0.63411487609549377     
  -4.7058422674919479E-003  0.89028616536031457       0.45537720498129908     
  -5.4512796083266604E-002  0.85577174226261310       0.51447359524857628     
  -3.2317272196219632E-002  0.81059282961781709       0.58471775968408568     
   4.8150992231326406E-002  0.79960237744652507       0.59859629127568414     
  0.10411788827223357       0.83451802891077420       0.54105371707863448     
   7.5362134864284600E-002  0.88017807537907200       0.46862256054386670     
 -0.20960083338578861       0.95444183217579603       0.21238709856507876     
 -0.16343055698728567       0.94450255596636490       0.28496556777237003     
  -7.8706500162496557E-002  0.95087060113593858       0.29941674423376807     
  -3.5452679732102275E-002  0.97135832981044490       0.23495978934208284     
  -7.8356138749677728E-002  0.98446849070782128       0.15710539877326171     
 -0.16683439117928858       0.97490009226011742       0.14743166563208449     
 -0.38289182151953943       0.90088871863594555       0.20443426730353531     
 -0.42629650352260001       0.89440845705980043       0.13529524390869341     
 -0.50522456429964469       0.85204640134204901       0.13698565468069279     
 -0.53768284970543523       0.81626238552376063       0.21121759186133612     
 -0.49344890808688580       0.82347725034551456       0.27998820202153302     
 -0.41884399136335210       0.86594209022620061       0.27333863114001045     
 -0.52757542110897937       0.73231074163772558       0.43056376150773229     
 -0.58884071586650821       0.67988565199383055       0.43706076414011608     
 -0.58933147783414852       0.62759575813105695       0.50873566182224972     
 -0.52484367497224549       0.63005538423743279       0.57233672749094888     
 -0.46395740281362041       0.68247914187179004       0.56477052798847860     
 -0.46899129687148661       0.73142575517384056       0.49503891577044540     
 -0.29452466069725447       0.62438122022642351       0.72346618170425181     
 -0.21044296302399224       0.61813178759305842       0.75738157653899452     
 -0.14305716297070428       0.66829492825162362       0.73001132662167012     
 -0.15983863079491306       0.72257262045387871       0.67256257721941559     
 -0.24240260787705017       0.72550720190460061       0.64411200553860359     
 -0.31007735471721382       0.67858652603456404       0.66586211844188670     
  0.19560234627392623      -0.61390856718736264      -0.76475878109773576     
  0.22415885841926131      -0.58371228647506734      -0.78040551818283710     
  0.26539486171115567      -0.55574017791546138      -0.78785685376710912     
  0.25043211171661423      -0.62805693254225659      -0.73676878795641754     
  0.23641728897639847      -0.65317002079313902      -0.71935790077689454     
  0.21451959920646707      -0.63721506905408065      -0.74022854398266746     
   1.8932702139693794E-002 -0.49973238236125117      -0.86597292036716589     
  0.10915645439374233      -0.55703625066127882      -0.82328335578548639     
  0.13574522913349635      -0.58971993496507624      -0.79611784998973667     
   7.4432179299156506E-002 -0.59517490722963606      -0.80014166276289633     
  -5.0983583350153239E-002 -0.48179708535067522      -0.87479840121960228     
  -8.4943522926414564E-002 -0.40544251099996742      -0.91016535211295047     
  -5.3665636654699478E-002  -6.0743359832342705E-002 -0.99670970883137500     
  -3.8284021496223689E-002 -0.14548870668369879      -0.98861892047723887     
  -9.2091189168687512E-002 -0.19868239038784902      -0.97572768774247010     
 -0.17152155791029233      -0.16783546529492027      -0.97077886862110041     
 -0.13176251608902192       -3.2771088762526761E-002 -0.99073946882881814     
  -6.3522307129037198E-002   1.4193006752038514E-002 -0.99787948924523984     
  0.23569008609492989      -0.10119771810949581      -0.96654498351913010     
  0.19475040399584012      -0.17958821737441877      -0.96427192861958577     
  0.11991276587859591      -0.17201889625280556      -0.97776808493185730     
  0.11380051448077363       -1.7766081313267602E-002 -0.99334475850969361     
  0.15658799267479845        5.7273105243494417E-002 -0.98600202432137274     
  0.19500826095076887       -2.0525674105653542E-002 -0.98058680128964892     
  0.35226276094429593      -0.49394341864832869      -0.79494078171012450     
  0.32738197315720563      -0.45325077078351883      -0.82908671587225458     
  0.28010916471812608      -0.40969474600064570      -0.86815267720625044     
  0.31980505721962244      -0.33797989828012642      -0.88515214157528277     
  0.38858565379218024      -0.32665308428458700      -0.86156772931341297     
  0.38346582255601158      -0.44230867720807898      -0.81075088467289436     
 -0.10509448092122815      -0.85846993254101256      -0.50198060221778196     
 -0.13731215952056439      -0.87439861120315643      -0.46537344098453920     
 -0.23063106703982955      -0.88451048622164286      -0.40552498157329653     
 -0.18066606244574046      -0.86364950102812166      -0.47060526267162417     
 -0.17237493254791220      -0.82023181193098871      -0.54544170845793394     
 -0.12043054783749151      -0.83122441121510360      -0.54273608811987628     
 -0.28798071698479583      -0.90157960970362361      -0.32283326038620092     
 -0.24223262329723297      -0.92357615732874654      -0.29720437046653142     
 -0.28720825890218360      -0.92092504951364984      -0.26345487127145317     
 -0.39377936938780395      -0.88510236186551716      -0.24805567371988593     
 -0.39212598294522782      -0.86403132054414378      -0.31573262520363971     
 -0.33428851059361547      -0.87438271526893152      -0.35171872131581638     
 -0.68445691031751843      -0.67137974321400629      -0.28419707655162701     
 -0.74002174948887167      -0.60598299781357057      -0.29180887005762474     
 -0.73515251138612003      -0.57183777474806630      -0.36407738789144878     
 -0.67323037960321397      -0.61431190274834757      -0.41156013184104329     
 -0.62876885340083344      -0.68724687630279990      -0.36378765785145217     
 -0.57281955952944030      -0.75125341609981711      -0.32786591317008423     
 -0.67385262120231593      -0.47546193458675567      -0.56556042440908794     
 -0.64379944264171896      -0.43748156706036029      -0.62779945534909765     
 -0.53485430466578709      -0.55027475242880064      -0.64119308294764021     
 -0.48987382730732082      -0.62141434898913517      -0.61144733231054871     
 -0.56433467071868360      -0.58879773801141622      -0.57865672305562532     
 -0.63334132088524364      -0.55096469424668382      -0.54343047113038567     
 -0.15994342356684049      -0.73181518198522233      -0.66246859599052255     
 -0.19818204857211380      -0.75778517870054141      -0.62167957869432133     
 -0.24946482418151325      -0.76850289577471631      -0.58921184703123741     
 -0.28511191616864695      -0.72614445949062689      -0.62564000767990191     
 -0.25982431106117387      -0.68468342816400463      -0.68095516047620397     
 -0.19089989047741143      -0.69273409092663329      -0.69546869885262508     
  0.39362187226450529      -0.82745719975556642      -0.40047022891553652     
  0.37386668041119991      -0.82428059165599621      -0.42518844233768915     
  0.37390847305216374      -0.80941894077399679      -0.45280617497567349     
  0.39861531389186194      -0.79446295891976459      -0.45818603037995898     
  0.42439438911897776      -0.79562581521299958      -0.43228343092348526     
  0.41987936280387278      -0.81367677643961100      -0.40203410822249547     
  0.39306920353315106      -0.86139964698857430      -0.32169434157562338     
  0.39340229362082413      -0.87306015850503094      -0.28809823846223914     
  0.38319694333589477      -0.88675850418222391      -0.25849459932178803     
  0.35326329044839816      -0.89988086726785255      -0.25577230566820214     
  0.33808454468075505      -0.89797726925727051      -0.28166587394510872     
  0.37402299504448921      -0.87527722124316698      -0.30658862527952735     
  0.26430758003675742      -0.92700365745888047      -0.26609344635479376     
  0.24404859149123301      -0.93819048581219944      -0.24543613695341326     
  0.23621366355776738      -0.92986720401342071      -0.28204625161288938     
  0.27098089578779350      -0.90426117997555411      -0.32997132073448981     
  0.29303424862679239      -0.90497729402039462      -0.30845911631730982     
  0.28417757817261569      -0.91581720974066150      -0.28376388495856231     
  0.19979811936220188      -0.89448292283825970      -0.39997626460835306     
  0.18425803635058632      -0.87918336775096473      -0.43941504515696528     
  0.21385815712221040      -0.85888313500987123      -0.46538634383478344     
  0.24898628068623521      -0.85594039000397371      -0.45317974446115811     
  0.25893857936009113      -0.87082736939654415      -0.41786421817244962     
  0.23827146199177840      -0.88894556840616368      -0.39115532312796558     
  0.32092228891249286      -0.79137556642374951      -0.52032066780655184     
  0.32390761377314425      -0.80758247369240399      -0.49284318593711446     
  0.30079484573778426      -0.82289125187004275      -0.48205025502880555     
  0.27565125222267473      -0.82274279871592393      -0.49710227751355152     
  0.27456828731193927      -0.80428764857316892      -0.52700439652362596     
  0.29590345072713403      -0.78912554463646190      -0.53825832334482482     
  0.77489280769659008      -0.18754223851266982      -0.60362989103734110     
  0.80089622236841662       -3.5510531249149407E-002 -0.59774931465155445     
  0.83029414201778362        3.6852766854697183E-002 -0.55610566559432384     
  0.84743674876026798       -4.0378557088478206E-002 -0.52935860149626268     
  0.85651872427724063      -0.11983835232079557      -0.50201040255708385     
  0.81937986015114717      -0.19221893304829671      -0.54006344678793172     
  0.92204933074736850      -0.14964517614152992      -0.35697528335432455     
  0.94714351983179246       -8.7477317703723925E-002 -0.30865331964520426     
  0.96636814862245679      -0.11136303192156120      -0.23179921580808338     
  0.93204629124872629      -0.25914419989356630      -0.25324690448457182     
  0.89910779325701418      -0.31599904440379079      -0.30290226153066807     
  0.91542359853266131      -0.23314926776196093      -0.32808696132515602     
  0.75645494831888171      -0.55580852635823308      -0.34475033457760051     
  0.81022356223438474      -0.48627453743953680      -0.32722294149125386     
  0.84455826778785525      -0.45887913066184655      -0.27595520606468960     
  0.81774284227146976      -0.51080423126754260      -0.26528415186918503     
  0.79070541583663656      -0.55734341701168344      -0.25328494009781238     
  0.76084598520763147      -0.57783484557496212      -0.29533079425076608     
  0.70220227288307668      -0.57328159384864574      -0.42220869497465041     
  0.66683255842023170      -0.61249913858697569      -0.42447513974429762     
  0.63207878551710461      -0.62126471288895280      -0.46314853494125291     
  0.63047614992615741      -0.59132467145122114      -0.50282696557304363     
  0.66142355951303422      -0.55495361891505246      -0.50452488122410244     
  0.69154733904720433      -0.55285068104794444      -0.46488536471000574     
  0.69525082487777978      -0.43811585382585744      -0.56980767732034532     
  0.65913207850469802      -0.48154899784317468      -0.57762917668891234     
  0.61860517999277631      -0.48929672868970669      -0.61474900779070507     
  0.60963810370990890      -0.45289760957968683      -0.65055755913062152     
  0.64155243023656472      -0.39083488538366956      -0.66004437095144719     
  0.68958803382709677      -0.38998399768695802      -0.61023014113576646     
  0.12578727443863852       0.84135703837506681      -0.52563855981656715     
  0.17402576354301491       0.79563343693157607      -0.58024345550787426     
  0.15979788227558153       0.74647181064005508      -0.64594463597122398     
   8.5320399803554367E-002  0.74526785131142304      -0.66128379624713041     
   2.6428950270844704E-002  0.79257980774320114      -0.60919517311394666     
   4.9538434070462059E-002  0.84026682140368747      -0.53990518834142542     
  0.32309958184544069       0.89722692524787895      -0.30098256564382364     
  0.28011299815493518       0.88635946289119605      -0.36865106918044283     
  0.19603456996313590       0.90453455047194598      -0.37866567626586245     
  0.15258163368708957       0.93585002729222000      -0.31765322519774564     
  0.19433631156911377       0.95000553412220567      -0.24438265720565172     
  0.28062106738776477       0.93011017565042342      -0.23695332386292894     
  0.57841813319480262       0.72411729632920763      -0.37561496821654755     
  0.51278182967848518       0.77506308986402073      -0.36923163716293600     
  0.48264685856033684       0.82335037286318169      -0.29857356451618078     
  0.52174439685108764       0.82112704343522913      -0.23137234686499183     
  0.59184804703741334       0.77103209720209098      -0.23500083893923657     
  0.61887386706520930       0.72249310339151629      -0.30821883819041523     
  0.60622146270236399       0.60547630522523188      -0.51564908801413412     
  0.66007793878988996       0.54417044982292728      -0.51785677195765578     
  0.65956540243160622       0.47783930970961869      -0.58020950872203780     
  0.60330486488734381       0.47666525891344896      -0.63938522890995741     
  0.54967179166519076       0.53890427991582290      -0.63831269651792732     
  0.55317384753966303       0.60081120971537116      -0.57708282306660097     
  0.27816406348573486       0.57652145268258459      -0.76827584133686422     
  0.28838523915960540       0.63708849389747280      -0.71480920865522357     
  0.35243303764261003       0.58331607433146193      -0.73180141527912812     
  0.41403798206716796       0.52848284195541595      -0.74113321013463851     
  0.40141906167992253       0.46214737785771215      -0.79074808761023996     
  0.33009105735004513       0.44842072395599675      -0.83063755524555294     
 -0.89178284193130319       0.24622046941765979      -0.37960353433111715     
 -0.90351431482737288       0.29948131946657980      -0.30654986901412840     
 -0.87446004465168503       0.38296186967853563      -0.29775801698710519     
 -0.83739826923020599       0.41117736217970241      -0.36013513508292588     
 -0.83063490682878138       0.35621625240592852      -0.42796685979105609     
 -0.85466971956531035       0.27541921990441715      -0.44009535758219070     
 -0.73677308504630357       0.61187344506674102      -0.28770872140675563     
 -0.67713130317130832       0.67653667323525957      -0.28946731772912337     
 -0.62822271482937597       0.68931340407722286      -0.36080916220611664     
 -0.63923357401924308       0.63990624790639528      -0.42649786838499421     
 -0.69764477255057367       0.57997194372984218      -0.42062372236844536     
 -0.74626462474816257       0.56347243235622291      -0.35438387071655214     
 -0.42538036555706443       0.58214216387075157      -0.69293725952817486     
 -0.48840467485264916       0.53865239099501738      -0.68652347028883798     
 -0.53820389445330619       0.56584488883994499      -0.62462479118988290     
 -0.53144834503957739       0.63049983703414192      -0.56571424947106885     
 -0.46739953840754345       0.67472593438867634      -0.57121150632645945     
 -0.41268714987861943       0.65186814690255357      -0.63620534057715417     
 -0.53073080664339245       0.19165550698086087      -0.82558644460986841     
 -0.58085669402488715       0.23398092547002100      -0.77965276086388047     
 -0.56873097623458690       0.32125674411080107      -0.75719164089058788     
 -0.51053505640905583       0.37202330080992113      -0.77521133881793358     
 -0.46068010345332422       0.33351225711872201      -0.82252259338805400     
 -0.46938084474163955       0.24235412405960230      -0.84908544984643797     
 -0.80393090656308475        9.1238704026673931E-002 -0.58768239412133971     
 -0.79662827881052978       0.17216991466560994      -0.57943153683883064     
 -0.74548467408589703       0.20285665693058502      -0.63490296695006143     
 -0.69989238393818209       0.16108850534586996      -0.69584563255851639     
 -0.70923410722293911        8.4304603472442258E-002 -0.69991407685874907     
 -0.75945419693766592        4.5022690464290797E-002 -0.64900098620658631     
  0.56905535117530393      -0.16376277145036414       0.80582737728724962     
  0.51386013965306188      -0.11089935994220332       0.85067566606794698     
  0.45115607229463545      -0.14672145844749288       0.88030165969553775     
  0.44149922207883591      -0.23449382961436588       0.86607798769889743     
  0.49298609680333216      -0.28613567982530297       0.82163926457389269     
  0.55772607689980380      -0.25121189887380646       0.79109683668320319     
  0.78451809833061781       -3.1762032250877030E-002  0.61929195594566333     
  0.73472070178299198        2.3315009732315095E-002  0.67796895260232226     
  0.68471619021669794       -8.0282025878995172E-003  0.72876559113225048     
  0.68430378276177117       -9.4738948594836836E-002  0.72301650362704417     
  0.73208913748218551      -0.14748410567469700       0.66505182756979508     
  0.78252046427679978      -0.11573673950454963       0.61177343037833676     
  0.35628302497030701       0.52872948094611461       0.77039440684396188     
  0.37656848159764356       0.45218289959557412       0.80853373707012632     
  0.45233689802819554       0.40772599629709505       0.79319029408192521     
  0.50608596569312347       0.44065390759665252       0.74141832257387552     
  0.48638163874035079       0.51875827581717326       0.70308090058502126     
  0.41226345841297429       0.56235593230287151       0.71679470300856851     
  0.12751907697454690       0.28559479457513709       0.94982866787602538     
  0.21130199183812112       0.25129906337488828       0.94456352300528013     
  0.27456159462280094       0.29387674130745489       0.91556124408839845     
  0.25567628382733082       0.37417598145204417       0.89141571266869968     
  0.17231119116260463       0.40884876012629373       0.89618722638928339     
  0.10734147301021281       0.36296482743489422       0.92559945020357226     
   9.0403591737534858E-002  0.68672479503843931       0.72127404395303651     
   2.6476709314795878E-002  0.64352707746627613       0.76496528315445356     
   4.6358141390293026E-002  0.57868439111067371       0.81423295082654723     
  0.13151164111706484       0.55525866200086649       0.82121404428060274     
  0.19452696904185574       0.59704799263609309       0.77826277876087624     
  0.17327749046407778       0.66372303670431732       0.72763084173670844     
 -0.42241537928591383       0.51415376089437070       0.74646577784980328     
 -0.49887884187528359       0.51591339348399279       0.69638586398131797     
 -0.55460616608287838       0.45321109414715710       0.69786223904491873     
 -0.53567531214342201       0.38744640907660755       0.75029143674554188     
 -0.46101078498206127       0.38580290932047778       0.79914027009660760     
 -0.40345839643060022       0.44981548205483268       0.79679818928849677     
 -0.35964479489224888        8.6866854174724284E-002  0.92903701280018947     
 -0.30987143445453857       0.15928444350456539       0.93734100527317565     
 -0.33565694334471996       0.23598923567652269       0.91194489802251211     
 -0.41427536317230712       0.24159437246823692       0.87750104425016606     
 -0.46352857015121818       0.16957963226949430       0.86970340517495404     
 -0.43476096988485208        9.1655196256244589E-002  0.89586953518021362     
 -0.56674186568229690      -0.51274107999998297       0.64490328155732035     
 -0.56203169813042042      -0.43578885470696255       0.70299960484329560     
 -0.60723274230950641      -0.36668938336750045       0.70484558081386794     
 -0.66216304267319703      -0.37204123566337211       0.65048091738639435     
 -0.67040197438854843      -0.44498474176407016       0.59375901873832593     
 -0.62045691410121906      -0.51480276849517126       0.59161755154297058     
 -0.28440310855513318      -0.44844137817348989       0.84735777696675341     
 -0.33571672861248486      -0.37515507822076360       0.86403295389406520     
 -0.40836463419813895      -0.36942485030743022       0.83472367015171733     
 -0.42928598750006891      -0.43759970703810847       0.79007596934488045     
 -0.37889416307997387      -0.51164864361692330       0.77113868964596044     
 -0.30703530785674943      -0.51534861783855856       0.80009069599714655     
 -0.72894625952594849       0.16825494522070231       0.66357186809863100     
 -0.70262860738355037        9.4325321305142956E-002  0.70527709011914896     
 -0.64172101685509708        9.6209615248024904E-002  0.76087965307286765     
 -0.60473007522155720       0.17265339262773097       0.77749105598499624     
 -0.63007709422968883       0.24625701166239444       0.73645117932839188     
 -0.69340171277151386       0.24367798592763365       0.67809667739916180     
 -0.39907078100302829      -0.80241314118459273       0.44370673040185887     
 -0.34534958339225530      -0.79103698736783290       0.50496945438988561     
 -0.36089397401206730      -0.73702136199224066       0.57144995536694188     
 -0.37966261985489091      -0.68182781294577732       0.62527364295842403     
 -0.43784512175203860      -0.62737106221379990       0.64396987480368273     
 -0.41957885125727507      -0.74989436799262010       0.51148022877778410     
  0.13159911719704287      -0.90801005380126831       0.39774290006080143     
  0.15272337548651813      -0.92758938361716869       0.34095968380546843     
  0.20248148965218093      -0.93043072567066687       0.30545034142424859     
  0.17930722486238401      -0.87601327770181292       0.44771604438782048     
  0.14381433755337633      -0.83771025392895526       0.52683865345698477     
   6.8683265289196549E-002 -0.83654371521453075       0.54357816512833168     
  0.22426415875265990      -0.63644948550882952       0.73799569070185489     
  0.14090283757176264      -0.64488920350226331       0.75117528285377044     
   9.4486541972654700E-002 -0.69129231140700342       0.71637087711297454     
  0.14003875922762771      -0.74463524335645481       0.65261589029494205     
  0.22004652938808986      -0.74063013135409916       0.63485945959296086     
  0.26181728349713457      -0.68405571795536091       0.68082265296827249     
  0.65030648851941031      -0.48084059940028556       0.58812735777034575     
  0.70714541182510604      -0.44694251400015295       0.54789392742931953     
  0.73424671718020418      -0.36423927474371420       0.57289746817756704     
  0.70255131626638168      -0.31633966254760321       0.63745656001930295     
  0.64425432072212552      -0.35190335052260174       0.67904374094887254     
  0.61885524938212000      -0.43466962455463237       0.65427860869948129     
  0.37675039742724065      -0.87660438429590015       0.29937249618430556     
  0.39069302980633630      -0.82639258731084098       0.40550492980781300     
  0.36336421007676251      -0.80009551812447199       0.47729824293875539     
  0.32196873679186638      -0.84743929809444218       0.42211700815514297     
  0.28436830272169439      -0.88543981290946361       0.36760169493901546     
  0.31992895834346474      -0.89573119290199588       0.30872494501681119     
 -0.94102240309415330       0.27978065670563879       0.19026197993363356     
 -0.91143730666268374       0.31051249961841576       0.26993336882311608     
 -0.87828014353287498       0.38721018213377456       0.28052141509660500     
 -0.87499473126151650       0.43595677668990429       0.21053719178030139     
 -0.90477199859631696       0.40495360489789545       0.13190984965583677     
 -0.93765321988423822       0.32538490814032589       0.12219288357033010     
 -0.81604156767146185       0.55822864030908248      -0.14985641451394746     
 -0.86270344753173300       0.48172257066981805      -0.15390297763241798     
 -0.89048465092196938       0.44694914354544568       -8.5285107471180080E-002
 -0.87274408146697313       0.48808844095623033       -9.3510464273212357E-003
 -0.82621771175744851       0.56333027366627120       -4.8265463190172329E-003
 -0.79728339048139962       0.59871686593424789       -7.6663613979226788E-002
 -0.91352149734319499        7.6190230893807748E-002 -0.39959169486889379     
 -0.88273767756827914        2.4121869715961829E-002 -0.46924655353317946     
 -0.87817123589089385       -6.1239610850199015E-002 -0.47441015009881099     
 -0.90680556345560737       -9.6475511633139929E-002 -0.41036099441964802     
 -0.93882063287579898       -4.5632985832332058E-002 -0.34136996043985812     
 -0.94107896864445229        4.1763894900875738E-002 -0.33559820002169632     
 -0.97715220454906004      -0.19975230547576284       -7.2612571928209954E-002
 -0.99139935994921513      -0.11048167764447039       -7.0150609385451021E-002
 -0.98805945994216249       -7.0512857650619709E-002 -0.13699065853095765     
 -0.97072657435793253      -0.12059868072968470      -0.20771585409297233     
 -0.95552504948884043      -0.20901934519720219      -0.20804517089488483     
 -0.95855211085771030      -0.24855329555520725      -0.13928068796094298     
 -0.79543094752033350      -0.39159243004759731      -0.46254186454452129     
 -0.81464140863388523      -0.42639118001781751      -0.39312839752682888     
 -0.86136081946643972      -0.38438061479663493      -0.33212811030785155     
 -0.89040996286738350      -0.30290370078024925      -0.33973437577044507     
 -0.87293866733736003      -0.26578571499729869      -0.40906727658253061     
 -0.82508051870980137      -0.31158991394015167      -0.47133200949684506     
 -0.44381096535629261      -0.88720141335324243      -0.12611692659403217     
 -0.56962513654448066      -0.81846978486344324       -7.5062740972275235E-002
 -0.63480780319527197      -0.76843425199853077       -8.0795132018279911E-002
 -0.64796363853030914      -0.74557191668610301      -0.15577432455823279     
 -0.59281082604910718      -0.77032956128427987      -0.23487803543657323     
 -0.51596145549849048      -0.84506288986470735      -0.14018733399772132     
 -0.77793146290673243      -0.59850658437513071       0.19134395072592630     
 -0.80501994561878243      -0.58179752212349256       0.11599366537400548     
 -0.77546506489433631      -0.62951404131172028        4.8641596600115883E-002
 -0.71848390551720220      -0.69316072492178171        5.7524663742243062E-002
 -0.69202031857014135      -0.70940961219094101       0.13358847561514753     
