607
  -7.9963676989185120E-002 -0.19185016461072318      -0.97816119566317272     
 -0.15261238424069465      -0.15271478436936975      -0.97641571823244810     
 -0.18306550633934110       -4.3493081855747198E-002 -0.98213816350827632     
 -0.14153961167427365        1.8995591892388756E-002 -0.98975032498896076     
  0.22085880280042944       -1.0900019412136185E-002 -0.97524488145407662     
  0.19056509945873834       -9.0194174396960647E-002 -0.97752235461555137     
  0.12748707200891427       -5.6262893016645277E-002 -0.99024316879238883     
   7.5164884023609366E-002   1.4452280500188302E-002 -0.99706638284422222     
   9.8975342115616996E-002   9.1217618205677850E-002 -0.99090021080933255     
  0.18153746605582116        9.8612997452428533E-002 -0.97842711795589510     
  0.31564375258137090      -0.50317183757817874      -0.80447941137393275     
  0.28834195431260440      -0.50700930305948855      -0.81228103756909142     
  0.25545948865946655      -0.41264671879251513      -0.87433582514021169     
  0.28715165092823880      -0.34573664894247169      -0.89331410990044102     
  0.32154821398145611      -0.34159794350067169      -0.88312943053747661     
  0.35155420344659111      -0.39999664730462958      -0.84641143906736549     
 -0.11211036635202082      -0.86353104611991094      -0.49167611101564401     
 -0.14191261806228486      -0.88031025883507663      -0.45267500154573198     
 -0.18167901397957051      -0.88310311251331730      -0.43257557553415121     
 -0.18642878820829903      -0.84948154374010254      -0.49358425194906430     
 -0.16471373534806355      -0.81809277661279656      -0.55099327967013634     
 -0.13031138770733439      -0.83708461485145480      -0.53132691425597889     
 -0.26653559412494338      -0.88572285455219069      -0.38007078549709961     
 -0.24608171341936977      -0.90741709940746584      -0.34064350577037056     
 -0.29180961527071847      -0.90565380445016219      -0.30763344246115792     
 -0.36968724524977098      -0.87516816797006192      -0.31210898492603689     
 -0.39557284251990193      -0.84553180664452721      -0.35860575875627915     
 -0.30903489764357628      -0.85867725982601339      -0.40886525347125474     
 -0.68720207408648282      -0.67041744559256644      -0.27981021785555699     
 -0.74683255098589452      -0.59972039019485812      -0.28736143508207251     
 -0.75289508928286786      -0.55500384651342938      -0.35372265249633117     
 -0.70187584894323329      -0.58074897938264725      -0.41243292256587494     
 -0.64045343173594826      -0.67125087311850917      -0.37315099774124444     
 -0.62884416387209241      -0.71475787827039872      -0.30606566781396255     
 -0.71512944509618459      -0.42721407703821129      -0.55324317360163811     
 -0.68683337648719756      -0.38703728722496256      -0.61519269439805402     
 -0.59697338248167109      -0.46862883533075217      -0.65116034531053502     
 -0.56426069473578977      -0.54336384932956094      -0.62158313652965680     
 -0.61559880312742854      -0.54175137121594108      -0.57231421909098601     
 -0.67928715512014670      -0.50100062080444274      -0.53625305485595209     
 -0.20700447693956728      -0.71794537982786621      -0.66460783783431043     
 -0.23430865387410893      -0.74652580686835202      -0.62273483474048485     
 -0.28011201324147589      -0.75859566138106505      -0.58827704576299056     
 -0.34942857576085318      -0.70323263422743099      -0.61916357499395103     
 -0.31427709827381595      -0.66786206180662255      -0.67467782822618194     
 -0.24231033502025276      -0.68189177389795785      -0.69015165741499829     
  0.39734063843131334      -0.82181861803286427      -0.40833145373036051     
  0.37671160533983838      -0.81897477104426686      -0.43286105252756651     
  0.36530862446445356      -0.80269176672724862      -0.47141864252506721     
  0.38992786689581110      -0.78726788982211060      -0.47766675441475281     
  0.41680593923082060      -0.78777932952815100      -0.45351575164495728     
  0.41348606550220501      -0.80607888044097475      -0.42339829019793035     
  0.37836130541528179      -0.86355366204605244      -0.33334335951282429     
  0.39457281878900413      -0.86388680711808896      -0.31306848317934122     
  0.38539247844924124      -0.88033977901626481      -0.27654025210870326     
  0.35810801501119155      -0.89198069318881845      -0.27591500967352062     
  0.34445867916755168      -0.88938770015132285      -0.30056236817952825     
  0.35802679374912338      -0.87589022060482213      -0.32347045677551239     
  0.28368355587301508      -0.92479398983452943      -0.25353444833626537     
  0.25306408374782524      -0.93207343632423389      -0.25922515081605785     
  0.24211460734282239      -0.92501710461721087      -0.29278639496537862     
  0.26351583992227068      -0.91205692064969279      -0.31418398368640688     
  0.27715920939314698      -0.89845342241094484      -0.34053519701585322     
  0.29009494737027630      -0.90760407509375074      -0.30347942991816412     
  0.20065767783118593      -0.89153560200874837      -0.40607975408569030     
  0.18595070101489364      -0.87530492568562490      -0.44638954273431669     
  0.21008036244490200      -0.85307056104522194      -0.47763674397287409     
  0.23636284957514395      -0.84741518925053005      -0.47541571321129705     
  0.25694463890798358      -0.86347829002315235      -0.43403305772157363     
  0.23892683226705486      -0.88782787035174993      -0.39328824219585695     
  0.31353876349386356      -0.78329636643699230      -0.53678696529754155     
  0.31599003902399747      -0.80036815151288809      -0.50947140968012616     
  0.30486508334090612      -0.81597577414633771      -0.49116271943809731     
  0.27976684451512124      -0.81482826795891705      -0.50772571970023661     
  0.26439146758145265      -0.79725872615418092      -0.54265613001341695     
  0.28810819131164478      -0.78135751920583107      -0.55360102716635373     
  0.81907253542966596      -0.11382407830079917      -0.56228485743775125     
  0.78884662312160936       -6.9037479982136218E-002 -0.61070027963588625     
  0.80450405723845086        6.0367547528221321E-002 -0.59087137440588489     
  0.85189288829777088        4.9358635898302958E-002 -0.52138491724439107     
  0.86643196407885681       -2.9160133916063223E-002 -0.49844291369468968     
  0.83737968473272151       -9.8875390728941540E-002 -0.53760479974152675     
  0.91788416476605905      -0.10059850835700120      -0.38388618129344076     
  0.94310021687826584       -4.3863834979332592E-002 -0.32960270767254568     
  0.96275865776982927       -7.7863683717906362E-002 -0.25890734568009965     
  0.94143357334337552      -0.19301866023631892      -0.27648982582095094     
  0.90943859730618870      -0.24629208280030934      -0.33505469356455458     
  0.90732254173336468      -0.18775736244827987      -0.37618210764066407     
  0.75800955460509090      -0.54354334390319703      -0.36053037101737023     
  0.79672061639788838      -0.48560247611233315      -0.35975893956945637     
  0.83202746509111003      -0.45517655899309167      -0.31708768105568247     
  0.82269936720867598      -0.49478191066250238      -0.27992251084113906     
  0.79628598356866398      -0.54333753780587346      -0.26591907111588764     
  0.76680727765514944      -0.56374637696219332      -0.30691468097355523     
  0.69856864539024099      -0.56910203260265169      -0.43373347134521911     
  0.66268683148793717      -0.60842590700289223      -0.43665098083044113     
  0.62899295656965049      -0.61459730554899783      -0.47606513482682333     
  0.62591468888413015      -0.58545752513215732      -0.51523808914443825     
  0.65676389204701913      -0.54996753355265549      -0.51594273145501346     
  0.70020684868301120      -0.53950789451046111      -0.46759127538727219     
  0.68822092746662455      -0.43397405775301695      -0.58139356050300406     
  0.65259539477397033      -0.47650891951427343      -0.58911671198765481     
  0.61174466035433583      -0.47955755596336030      -0.62912083183312795     
  0.62426784603092389      -0.43548987239401088      -0.64856628609122047     
  0.65510268715449815      -0.35720958570730976      -0.66576405817809647     
  0.70044627452602615      -0.32559918582718411      -0.63510643729321903     
  0.10820498300816404       0.84559873083898462      -0.52273747527387160     
  0.15483085647385497       0.79928405655822143      -0.58066548271393437     
  0.13118691415396133       0.75180187390194830      -0.64620734749171660     
   5.4529929866002413E-002  0.75171307825217537      -0.65723202503640032     
   1.8154270448615764E-003  0.79918506879613160      -0.60108229888923459     
   3.0012325809751973E-002  0.84591875131914718      -0.53246664352440332     
  0.31377730022676881       0.90099535765292060      -0.29958499854012344     
  0.26770276512732616       0.89023140865183259      -0.36854208523987814     
  0.18449490956976955       0.90734668119680872      -0.37773486530101946     
  0.14327802562108069       0.93868423208156904      -0.31359738489910893     
  0.18743691079434124       0.95245511221634183      -0.24020129825800232     
  0.27407891694612724       0.93269712502878532      -0.23442871037625967     
  0.57120969281781409       0.72716234315303352      -0.38072879262168796     
  0.50518517773126803       0.77991999596356865      -0.36947629977687901     
  0.47564653253616890       0.82677605233303897      -0.30033603742294290     
  0.51916018964700228       0.82135286554329479      -0.23633063227078055     
  0.59033148580928885       0.76948882015857645      -0.24371231506257432     
  0.61409796044555143       0.72243966359797240      -0.31774931539983242     
  0.59116773179403193       0.61105704047166931      -0.52643138790872279     
  0.64359933046195517       0.54887160492758813      -0.53340403366785349     
  0.63861219524640855       0.48503099568294911      -0.59742731550320827     
  0.57789600743891012       0.48712845473025967      -0.65478398970826734     
  0.52527475804477275       0.55119019481039477      -0.64828681747038830     
  0.53511234602554991       0.61002248370691758      -0.58440341075585422     
  0.22789609981134651       0.57876636715553043      -0.78300246483671210     
  0.24594612303143831       0.63602199726532715      -0.73142772955393809     
  0.32273922704351488       0.62869801156608629      -0.70751551331416307     
  0.38516623507255543       0.56932595421773868      -0.72630222993881433     
  0.36764714822673766       0.51135085442503159      -0.77675985869478181     
  0.28797171637560393       0.51514003103222483      -0.80728126387016275     
 -0.90805843487247151       0.25932728846645925      -0.32890612082111120     
 -0.91566495521407731       0.31040350749309470      -0.25535730326110911     
 -0.88553626142890751       0.39235739348469961      -0.24875933243278803     
 -0.85076025529997013       0.42134395050217816      -0.31412778192504359     
 -0.84664609886115150       0.36827391096743534      -0.38414152311868432     
 -0.87311488057479181       0.28834133530961265      -0.39310263249021421     
 -0.74708518962046022       0.61872232035497021      -0.24299467019735776     
 -0.68751898591793892       0.68338657759206822      -0.24556145782546754     
 -0.64066720279349010       0.69884934900985185      -0.31804893122485289     
 -0.65327421500115579       0.65241265720764496      -0.38417512247656499     
 -0.71262028235784014       0.59109115810415791      -0.37786714065041127     
 -0.75908650964700608       0.57223878913475301      -0.31037145339337707     
 -0.44327486289220402       0.60392279877811883      -0.66240821933600857     
 -0.50789928687112595       0.56262243743165519      -0.65229924673746564     
 -0.55837991450155011       0.58653989318892952      -0.58667096807253094     
 -0.54834490979047568       0.64871414565415197      -0.52771944926739123     
 -0.48268940309381969       0.69129667152479390      -0.53769866289556023     
 -0.42912143640000844       0.66975279287916978      -0.60604124385436453     
 -0.56802528439210187       0.17620740328287457      -0.80392675494697774     
 -0.61962296214184143       0.21798217683132462      -0.75402331221948782     
 -0.62444947886458679       0.33818376610128209      -0.70405581361941716     
 -0.56374952829879321       0.38491653992992819      -0.73077063886780513     
 -0.53101845574807205       0.33686021101985192      -0.77752466062922632     
 -0.54418170925398768       0.25193630148805174      -0.80024644160779002     
 -0.83368328975088690       0.10269869489104698      -0.54260957460941872     
 -0.82438742223846961       0.18282702434720341      -0.53568615552705690     
 -0.77624032587772129       0.21109076448100680      -0.59404683791101298     
 -0.73491144281801879       0.16433080893406010      -0.65795178884946814     
 -0.74314982348776037        8.5080294045861760E-002 -0.66369396819255499     
 -0.79323294748751061        5.2372245291702667E-002 -0.60666188189417514     
  0.57486046358183496      -0.16897906627683387       0.80061321658506679     
  0.51915681288883353      -0.12125410211733023       0.84603406926129676     
  0.48370673737763331      -0.18515634353280161       0.85542090263509951     
  0.47218584065999747      -0.27203702551724041       0.83847265228386769     
  0.52342469510297485      -0.31643258004120345       0.79113653110245463     
  0.58850941031147685      -0.27684608249139697       0.75961366534838237     
  0.79234626559213295       -2.7745432989195903E-002  0.60944038785630472     
  0.74330999260752340        2.3750010687359088E-002  0.66852538611645407     
  0.69300110616325361       -9.8514327944864370E-003  0.72086920875315685     
  0.69190928436334764       -9.5278726424804491E-002  0.71566997037927149     
  0.73969526464366098      -0.14525556326977077       0.65707818165186860     
  0.78972258005727736      -0.11131586636511669       0.60328022049712571     
  0.37169064188874723       0.51775106512939906       0.77057115264568776     
  0.39167290261850823       0.44021082636645553       0.80796458196145871     
  0.46566123336098547       0.39670982032713314       0.79106316701053625     
  0.51802057866101547       0.43130719733463752       0.73866689489312209     
  0.49824553147278411       0.51009771385445879       0.70110749010965334     
  0.42593227888571206       0.55303054323105350       0.71605789714016133     
  0.14736067562606772       0.26672630817189774       0.95243997596069996     
  0.22855654733825992       0.23255777740743705       0.94534585461413367     
  0.29108805919250008       0.27703652055637251       0.91570656220951163     
  0.27349210696068699       0.35858353377180124       0.89253566692762021     
  0.19222207194165272       0.39272909032926517       0.89934116811564113     
  0.12840171197972358       0.34517623585312368       0.92971305603554089     
  0.11028171180341675       0.67523780867883376       0.72930915651204797     
   4.8039813038940241E-002  0.63068194639690001       0.77455307039104915     
   6.8390047902077825E-002  0.56466095108875602       0.82248453582027492     
  0.15210407342949459       0.54155505197720311       0.82679046712218673     
  0.21347730134509649       0.58492090687580056       0.78249279518089232     
  0.19197106588089480       0.65264598748972447       0.73293950969920807     
 -0.39628161093445857       0.50096758661344787       0.76941039894057062     
 -0.47389065708826861       0.50360281206222668       0.72236545654361595     
 -0.52926399212543096       0.44105770757981744       0.72480875079146778     
 -0.50859748130304849       0.37493969004648908       0.77507988674719064     
 -0.43296054335935485       0.37232697973533641       0.82092495884528605     
 -0.37591230124352787       0.43586794191243017       0.81774634146954006     
 -0.32701496204473629        7.2937988941138704E-002  0.94220022520062152     
 -0.28044716195923386       0.14384154755172399       0.94903055722507501     
 -0.30614293825225664       0.22018901815143987       0.92617131117508700     
 -0.38487680046928208       0.22702580665034933       0.89461116222372639     
 -0.43401020488006486       0.15560586458068262       0.88736799410845457     
 -0.40427315486728810        7.7941603147417216E-002  0.91131132043471308     
 -0.50793558198473976      -0.55794704332531220       0.65627474536078700     
 -0.52189048106345914      -0.45860489518276804       0.71924396131615420     
 -0.57011394757983147      -0.38927217377963264       0.72348964159538631     
 -0.60951311374399220      -0.42329350277026534       0.67031065535808287     
 -0.62179037622378786      -0.48998132113664750       0.61097875001726998     
 -0.57015688256927188      -0.55580902438565394       0.60497723731588193     
 -0.22754093664794070      -0.47412941666294400       0.85054477742458356     
 -0.27921593031077607      -0.40286649631822291       0.87162896372537280     
 -0.35550051156668044      -0.39801020338160875       0.84569927532188349     
 -0.38019573980300514      -0.46519800840402253       0.79940103353234204     
 -0.32780021448043772      -0.53563876632054430       0.77822755759558171     
 -0.25188809990227828      -0.53964746879435355       0.80332620681231803     
 -0.70094322156737288       0.15136891649571130       0.69696918960429466     
 -0.67271398417028883        7.1761518719095738E-002  0.73641440774394495     
 -0.61621084294673012        8.6535389396127455E-002  0.78281276395887978     
 -0.57639150628543745       0.16103423479196494       0.80114967809203463     
 -0.60236006620644500       0.23505434730823535       0.76283143908157491     
 -0.66766993077298853       0.23104793447820840       0.70769606153697517     
 -0.35639963925346096      -0.78360819506032253       0.50885901168624925     
 -0.27694762577932641      -0.79002987143868197       0.54694864001090060     
 -0.28095246321249467      -0.71488237154256307       0.64031937989765120     
 -0.33845241489439670      -0.65555129958550917       0.67505737272020150     
 -0.38404646825114225      -0.67882835179673184       0.62585971193291934     
 -0.39269153391598655      -0.73283731557013720       0.55564631565292022     
  0.10710584988976371      -0.93168126087341552       0.34712874420985945     
  0.15483561967909573      -0.94259854217771988       0.29586131744962479     
  0.20481423240852173      -0.93962849026651984       0.27413396448154409     
  0.22840799048826371      -0.91755681707867343       0.32545241943111619     
  0.19390078968997457      -0.88853908721340225       0.41581338873535345     
  0.12311536705513844      -0.90263095497086354       0.41243177074913306     
  0.23826668033469917      -0.64997877831832562       0.72163465602623278     
  0.15833821329182987      -0.67296681056901064       0.72252659610849224     
  0.15987267431926408      -0.75120797664227257       0.64041182362213567     
  0.21305077758970212      -0.78533138791351265       0.58126067932233227     
  0.27631755694573018      -0.78919343157756072       0.54847272974905248     
  0.25165354227816250      -0.70016560212990364       0.66816062758360928     
  0.67399721126735002      -0.49443348227487410       0.54887456746453200     
  0.72891895219673053      -0.46427405083416429       0.50311705084448899     
  0.74621670259743789      -0.35959114769361744       0.56022748885162177     
  0.71339027293526858      -0.31121540082927956       0.62786884997427117     
  0.67508489201550692      -0.36727013729741215       0.63982265888443746     
  0.65101376787393062      -0.44409997923660244       0.61559425150064329     
  0.37777375961439014      -0.88495845790967032       0.27227837652106590     
  0.41006889689458226      -0.83091908460374331       0.37605448360701388     
  0.39270457332622227      -0.78817490039061455       0.47388125567795414     
  0.36208078835094576      -0.83634002846317934       0.41162222910985530     
  0.31947307202192449      -0.88941465219797511       0.32692282378021453     
  0.34964274748632518      -0.89519753889536047       0.27635360588547303     
 -0.93223560767614932       0.27047610721677229       0.24037355762550450     
 -0.89972467797579181       0.30009200729409713       0.31692316261131381     
 -0.86647731365864111       0.37794020424119074       0.32615681340887542     
 -0.86587566566371776       0.42889086604454257       0.25751108060620609     
 -0.89855881740159893       0.39959672539024493       0.18142356166505300     
 -0.93171047212730207       0.31910080510212468       0.17346547873134810     
 -0.82094273316467525       0.56182791592729475      -0.10199226318160395     
 -0.86774612783370741       0.48595722656534129      -0.10422203019769180     
 -0.89280859720969941       0.44913174299348857       -3.4256184610660725E-002
 -0.87202928673027036       0.48777713447980481        4.0477032541509340E-002
 -0.82538026588988622       0.56292343237407183        4.3181314983852068E-002
 -0.79933524596785643       0.60016875720503782       -2.9336452213361321E-002
 -0.93457441331329727        9.2798765207960418E-002 -0.34345167805090704     
 -0.90899772470677309        4.1955844565546602E-002 -0.41468402861058129     
 -0.90813917189224957       -4.1473638477069759E-002 -0.41660914750678796     
 -0.93417701492064031       -7.5181217685326776E-002 -0.34879949727789639     
 -0.95963985584622125       -2.9464472582322338E-002 -0.27968409308877296     
 -0.95947021795883813        5.6814608018520174E-002 -0.27602355183158128     
 -0.97804606964307095      -0.20760608416677970       -1.8044375098000925E-002
 -0.99308247883333978      -0.11674833349917660       -1.2530636831162047E-002
 -0.99445854558938584       -7.1317523704245170E-002  -7.7239963211654730E-002
 -0.98202633860894228      -0.11708214607376732      -0.14804067464408563     
 -0.96630219794258110      -0.20703950618712275      -0.15295327760178587     
 -0.96373735239129699      -0.25210923676596292       -8.7471414434068667E-002
 -0.82842206096891624      -0.35084588516831400      -0.43660514628262859     
 -0.83993303355211058      -0.39997778960309421      -0.36678367871563217     
 -0.88030002318274947      -0.36868321746749910      -0.29857085313584036     
 -0.91105815126165102      -0.28796947181246213      -0.29503665589847355     
 -0.90104784369825719      -0.24014915490510075      -0.36116639761346414     
 -0.86288717191571507      -0.27415154102606110      -0.42457821552257630     
 -0.47685843614684631      -0.86227768706152941      -0.17053803760863237     
 -0.52923003421827608      -0.84214188476945695      -0.10350177195714652     
 -0.62050842147151708      -0.78157048712900679       -6.4162859442618014E-002
 -0.65926915870633718      -0.74043088467651452      -0.13086741915309702     
 -0.57858100650712074      -0.79360228423870427      -0.18825364102805009     
 -0.48427457819278524      -0.84963653096433278      -0.20879630783875094     
 -0.75328668217567463      -0.62546514686043375       0.20335320139997867     
 -0.78733452519192937      -0.60241611556841712       0.13114560283996740     
 -0.76374282333778132      -0.64278798035260742        5.9333903581767766E-002
 -0.70442938021843726      -0.70746469571936743        5.7209724660858052E-002
 -0.67093331076997742      -0.73051602957909079       0.12725888191885765     
 -0.69574481663784149      -0.68953245579474265       0.20120671590990116     
 -0.32761632730756801      -0.94479234475173568        5.9133222487796266E-003
 -0.38340542056376004      -0.91685437417924254       0.11125798861527075     
 -0.46178363271711803      -0.87961330927178139       0.11417662942357075     
 -0.53632520404619077      -0.83584691844203851       0.11711193122718133     
 -0.50142119476124636      -0.86413178153248038        4.3047062497992117E-002
 -0.38190470063998677      -0.92381687146128055       -2.6668101405499755E-002
 -0.67597495928935303       0.65627653352833915       0.33519988954918251     
 -0.66163490836565930       0.70307660716138010       0.26061951671816141     
 -0.70320205072733322       0.68534274402470141       0.18924111357092990     
 -0.76078923648777197       0.62025518564659898       0.19100586986492313     
 -0.77477500635093188       0.57428651061930769       0.26442143115604899     
 -0.73152158871572481       0.59258582674874360       0.33722129704295084     
  -2.9910473178132342E-002 -0.94270124840132052      -0.33229462808906812     
  -5.3735047146575891E-002 -0.95478892187930353      -0.29238785775868426     
 -0.11338093479059876      -0.95151450988547726      -0.28594562613093072     
 -0.13646785424531277      -0.93791356576745066      -0.31889601425396658     
 -0.10284163704467592      -0.92255521049053180      -0.37190789355261272     
  -5.3334644792122375E-002 -0.92672977848080396      -0.37192382733809626     
  -3.8464547515967791E-002 -0.98220017738932008      -0.18385671083966479     
  -7.5751439458475881E-003 -0.97591678084479949      -0.21801159157192324     
   4.2775741117957150E-002 -0.97592036884482780      -0.21389172411663027     
   6.6229218234221704E-002 -0.98214124883594067      -0.17610297552018470     
   3.7704404202821326E-002 -0.98923096837975555      -0.14142301475418115     
  -1.6097458944740933E-002 -0.98954630857280568      -0.14331425262497829     
  0.14724550785649090      -0.92575757038986461      -0.34826955261971837     
  0.16723555291863157      -0.93621572587436352      -0.30908313520077135     
  0.14178758140022932      -0.94989042897503873      -0.27857576115356858     
   9.4168828110076555E-002 -0.95394010953592512      -0.28483416092695385     
   7.0688532064995938E-002 -0.94309306527745063      -0.32492861009778495     
   9.7903819383533472E-002 -0.92872461999675959      -0.35761071343290485     
  0.30767061932603179      -0.93117378657847905      -0.19558673061491971     
  0.32605133507425393      -0.91872450695770602      -0.22279094957294990     
  0.33977992921045569      -0.92044717946373400      -0.19320090456049704     
  0.33520905202482043      -0.93340695334402835      -0.12800918283326396     
  0.30034058556270687      -0.94446997828628021      -0.13331163782567473     
  0.28811674934831860      -0.94287392307675355      -0.16726477192406788     
  0.21854708463617706      -0.97576577176803381       -1.0877979727924427E-002
  0.20709942211665186      -0.97709132962638456       -4.9013905454399202E-002
  0.22658968940192112      -0.97082838692328821       -7.8417828334295836E-002
  0.25861288721793341      -0.96335863933660171       -7.1130208634136521E-002
  0.27052270589218946      -0.96222481199186805       -3.0673714870914692E-002
  0.24989412192123733      -0.96827301842666991       -5.3815993855559205E-004
  0.35304413548846492      -0.93507681856798786        3.1483039465282948E-002
  0.34036715368159343      -0.94023720837577962       -1.0207481590053151E-002
  0.36529207526053192      -0.92983232367666879       -4.4424650790980638E-002
  0.39587081290742898      -0.91596907586451715       -6.5474816135012978E-002
  0.41360509036818882      -0.91027914413481992       -1.7964102390666630E-002
  0.39329793355318976      -0.91852849207891685        4.0275857557872184E-002
  0.44915874933699923      -0.83391955848504107      -0.32067832460292173     
  0.45491667184500129      -0.81626494963541718      -0.35603701166333446     
  0.49110356804754740      -0.79403271440245160      -0.35823083885902784     
  0.52062466798766360      -0.78910032669135399      -0.32599176293019017     
  0.51122544645535228      -0.80903080852851517      -0.29003050485806320     
  0.47343556330257297      -0.83224108909744832      -0.28850223052563823     
  0.56254948531523774      -0.80862660440242307      -0.17222395659189882     
  0.57358281467254513      -0.79107281502179316      -0.21261833421842194     
  0.61293851381365749      -0.76080382827001192      -0.21326957864074073     
  0.64089907463997042      -0.74770006945599166      -0.17376127952203543     
  0.62847339128906010      -0.76648292229661674      -0.13238249986031581     
  0.58893103299121241      -0.79739915017779606      -0.13158584147100294     
  0.64945375642822145      -0.66876137635407640      -0.36189506733067528     
  0.68057752055428933      -0.65623096975614403      -0.32584528974512822     
  0.66413882122833667      -0.68481062453878871      -0.29992338130967644     
  0.62986174442908727      -0.71912608056256866      -0.29348230467860448     
  0.59998852624145882      -0.72918983312375063      -0.32908350862290087     
  0.61024139624962848      -0.70220290445818778      -0.36676493735605253     
  0.95669388006805023      -0.25937591328662241      -0.13213990860852606     
  0.94375346160095686      -0.31757735137628357       -9.2054492606476523E-002
  0.91296190024579960      -0.39857516040577767       -8.7397998873471550E-002
  0.88177806511007650      -0.45708275991977243      -0.11637351277182180     
  0.88562796036364655      -0.42794943383429213      -0.18033967368007550     
  0.93046559847115995      -0.31050149237717611      -0.19448031595318960     
  0.84487971235175341      -0.52405076078351764       0.10746660773763515     
  0.80927770144840061      -0.58630525257032651        3.6273306257343790E-002
  0.82855248233408285      -0.55945760883414719       -2.2538144014268614E-002
  0.87714687424913229      -0.48007834975076441        1.1753258933579157E-002
  0.89626011090094071      -0.43575911002026885        8.2654773861990286E-002
  0.87192189131806097      -0.46648223630316332       0.14881713158751259     
  0.98895106146565925       -6.1356349677761414E-002  0.13494886579799778     
  0.97583393571392352      -0.11524762874451380       0.18565051569505758     
  0.96158925058659173      -0.19837228308195823       0.18972229827083642     
  0.96084998679178146      -0.25015284268952809       0.11912538846350847     
  0.97503443594780204      -0.21778558273702936        4.3327689389628478E-002
  0.99151048645922502      -0.11084319752270817        6.7976031101654344E-002
  0.92875949416117787       0.15141628291060374      -0.33834732343408469     
  0.89279854144569726       0.17677790910069882      -0.41431912247254599     
  0.86436097327622263       0.25564008979824659      -0.43304532368439869     
  0.88405609743219082       0.31403471753514117      -0.34616038591321907     
  0.91817426756135800       0.27963564872120067      -0.28064197539291408     
  0.93945618150161425       0.19447070392257065      -0.28214044083446432     
  0.88047675596920560       0.47352659917975337       -2.3092034713318357E-002
  0.92803769631585842       0.37248066273762559        2.0469741800361219E-003
  0.94129705318224166       0.33013438483669899       -7.0506351621129879E-002
  0.91910798593222587       0.36946687334130890      -0.13687490529313448     
  0.88314257567557020       0.45088539222364404      -0.12946642077562187     
  0.85525054951195478       0.51070960030918411       -8.7876058807463089E-002
  0.31494838417114590       0.94892436894611709       -1.8709819031671009E-002
  0.35560715044674318       0.93298761610774128        5.5476686461444616E-002
  0.43567369003883882       0.89848912384312785        5.3904824863365793E-002
  0.47483895465231579       0.87981841038623487       -2.1154949542239856E-002
  0.43429697381072035       0.89608311226103954       -9.1767066311502943E-002
  0.35583065676968068       0.93016502196085571       -9.0429948708480923E-002
  0.56510636038102779       0.75652678729277023       0.32912311004453582     
  0.60530709861207266       0.75456462073448327       0.25344733083159532     
  0.57798592312918740       0.79432189698596334       0.18704276685592996     
  0.50572109812665589       0.84034652945524180       0.19509967027675820     
  0.46305214395384536       0.84378174508298487       0.27132098821222811     
  0.49369417790710540       0.80055426498567472       0.33967473782115987     
  0.73833326219386841       0.54030745727860041      -0.40364817049912877     
  0.72847178011308655       0.59810232254161178      -0.33406956962465273     
  0.76641352419477127       0.58453225068699621      -0.26633129338878930     
  0.81597185296351060       0.51467874143540593      -0.26324081804644522     
  0.82386301942131135       0.45862800892637101      -0.33303164212764014     
  0.78557548820382239       0.47024583363493599      -0.40216912895237267     
  0.26310935997369994       0.89944093721999219       0.34896914641132948     
  0.30768203992485738       0.91035632591226345       0.27673655735952762     
  0.27034058707901876       0.94129928607869717       0.20216730943826317     
  0.18739235630820258       0.96205010321091955       0.19835247341316117     
  0.14387014450627897       0.95225721723503376       0.26927230407810643     
  0.18220126161457040       0.92065828702972152       0.34524052309883585     
  -2.6902531513710394E-002  0.94412400859627355      -0.32849065464676080     
  -6.4878995940075415E-002  0.91313177970858161      -0.40246871775585991     
 -0.14657208331608390       0.90051678139623270      -0.40937287503711395     
 -0.19243436384642931       0.92506888437501900      -0.32743942153042260     
 -0.15503331970850448       0.95366029270016039      -0.25786957150312462     
  -7.0668740359121837E-002  0.96355371460886008      -0.25801195359812795     
 -0.20651289536667175       0.97754275829842208       -4.1983088804743579E-002
 -0.24845972083733742       0.96189911119293947      -0.11409586761870660     
 -0.33413549206152859       0.93560800610396466      -0.11397864650435140     
 -0.37931225515800404       0.92431119635931158       -4.2083552271255570E-002
 -0.33811271826820632       0.94067394928053105        2.8501068230037147E-002
 -0.25097087742133301       0.96756850101121827        2.8719584559503259E-002
 -0.45423370011851277       0.79848362241636683      -0.39508942077646414     
 -0.50533108790023795       0.79963202432140768      -0.32439037791095104     
 -0.48044580694854583       0.83924505358229740      -0.25463614555519659     
 -0.40305331116155790       0.87847797344700085      -0.25656281595382213     
 -0.35339647960822518       0.87581414956540204      -0.32872557494290744     
 -0.37981968055733367       0.83490850244698112      -0.39832750696263020     
   9.9990219926595389E-002 -0.66927138398573061      -0.73625930927687133     
  0.16363173013487028      -0.67703828589181503      -0.71752617814944009     
  0.17074439232178826      -0.70089561871288963      -0.69252558375827455     
  0.13581478771365862      -0.71917406005181894      -0.68142718964455518     
   8.9156172681301604E-002 -0.71220329654675418      -0.69628847560530416     
   5.3906514750180323E-002 -0.67557308364924173      -0.73531972387264510     
  -6.4411000822175588E-002 -0.79689087772781764      -0.60067974159886062     
  -7.7593018808569253E-002 -0.76492716867235333      -0.63942610992910676     
  -4.4690026005473095E-002 -0.74332032425182648      -0.66744115630502565     
   1.4057289320946154E-002 -0.75847964589611760      -0.65154510156876100     
   2.0255225899932016E-002 -0.78597616813301552      -0.61792490559183988     
  -1.5906145124281141E-002 -0.80560232255143716      -0.59224310249002943     
 -0.41472954442020943      -0.52876050108942574      -0.74054826815857522     
 -0.48947867621685881      -0.49454297741713271      -0.71821853848002903     
 -0.51913165739724965      -0.41626560912354021      -0.74647522728419635     
 -0.47227375799869270      -0.37384928054067629      -0.79824445688336043     
 -0.39825155863109796      -0.41078871518162352      -0.82015140524620955     
 -0.37075493400410137      -0.48742698379508786      -0.79054140586058974     
 -0.23859007747937649      -0.26175721893704612      -0.93517802223038171     
 -0.17924697667411688      -0.36436693510710849      -0.91384203118145135     
 -0.23523834175838665      -0.40519944937502672      -0.88344571355173807     
 -0.32474819119779808      -0.32584943215380302      -0.88789681826144784     
 -0.34244570462014989      -0.24076415126882231      -0.90816494253577784     
 -0.31243994496508926      -0.21901592739435211      -0.92434479732284092     
 -0.51764957248326549       -3.9021042867504810E-002 -0.85470245016697177     
 -0.48223030010025358      -0.14693496627218888      -0.86363421270339336     
 -0.54108446330916660      -0.18914455493473822      -0.81942171127202312     
 -0.60383406982724286      -0.14686821715551060      -0.78346291737735108     
 -0.60813358381205596       -6.0643197891614958E-002 -0.79151496940322197     
 -0.57941832128831006        4.3995113211024780E-003 -0.81501843737155555     
 -0.39953272128590617       0.42689470955695591      -0.81125489926049799     
 -0.36868908788042631       0.51615599971799619      -0.77307912947706414     
 -0.29766781095724948       0.55285930060969046      -0.77829330464117652     
 -0.25585918923585810       0.50399060009285401      -0.82494214966966872     
 -0.27090369025327554       0.42549345485660295      -0.86346193342923316     
 -0.34289244860308904       0.38619660512027942      -0.85631591768724524     
  -1.7148871332412056E-002  0.21800965633325864      -0.97579593458749303     
  -9.3305997063447638E-002  0.20521130177507305      -0.97425987936267588     
 -0.15470756112306841       0.25218975307311325      -0.95523080926877257     
 -0.14891147680514830       0.33083345095489541      -0.93186619200665533     
  -8.1594558132174422E-002  0.35171416349157941      -0.93254462374871561     
   1.0074017317009569E-002  0.29597234477008860      -0.95514338468441085     
   1.0071376060009940E-002  0.63482379038940873      -0.77259130369159723     
   6.7654052846543786E-002  0.57763871716376181      -0.81348413725581681     
   4.4868598443641619E-002  0.51095509686044183      -0.85843561078629527     
  -3.6102116350935902E-002  0.50070277422270748      -0.86486609893131317     
  -9.3457192556866228E-002  0.55609853646010232      -0.82584512525431863     
  -6.9204196623325900E-002  0.62392008256202758      -0.77841795312384265     
  0.57527725096554294       0.24624231880814884      -0.78001333639208614     
  0.54700117169766338       0.17332853875416568      -0.81899141376129769     
  0.49766533341728109       0.13225659492918432      -0.85722657973980498     
  0.46964038638057748       0.25773355603711390      -0.84439997724583438     
  0.47126768041297878       0.36061468952039377      -0.80489988141400570     
  0.54303410000561403       0.35513085161926128      -0.76091789600407678     
  0.39855884477813713      -0.18427653431726698      -0.89843920559442081     
  0.36035154262734714       -3.4964567819219930E-002 -0.93216106157858059     
  0.39250693933098268        4.4062267854346325E-002 -0.91869299503618518     
  0.43504419493250951       -2.7183775285701185E-002 -0.89999866156386099     
  0.47130855691099016      -0.10074189063652833      -0.87619593451091626     
  0.46793944947541449      -0.17808002132564960      -0.86563281917294599     
  0.69306442624920295       -9.7712291530916193E-002 -0.71422266076598295     
  0.63532758653961896      -0.21371115289795667      -0.74208247581301179     
  0.60660639575848119      -0.21284330024169831      -0.76598068524416929     
  0.58536808096311466      -0.13426928725731202      -0.79957236588627401     
  0.60732614803102181       -1.7181462896400324E-002 -0.79426679853216897     
  0.66951648282178278       -1.8514775142407489E-002 -0.74256641610793006     
  0.51951104171098716      -0.62745861434023587      -0.58000341794733945     
  0.47924428878563652      -0.63184103317402118      -0.60918127061157656     
  0.46980085757533524      -0.60237991955132375      -0.64531045764253681     
  0.50356718855127180      -0.56576024224577270      -0.65294366901638035     
  0.54551236876931664      -0.56019413840236831      -0.62337691874123569     
  0.55264085571227484      -0.59249460852617564      -0.58612133851705006     
  0.29884079373723110      -0.64102600947897626      -0.70695108400083884     
  0.33664567203919787      -0.59405775160191776      -0.73059227976960661     
  0.40041572399039693      -0.57909029661332634      -0.71015609294685067     
  0.37792260483702256      -0.61692093734623843      -0.69034995604913185     
  0.35039317980704704      -0.65205534013692656      -0.67234548629675761     
  0.31189481376964062      -0.65997322756417731      -0.68348881778864823     
  0.38794071264612012      -0.74798521377540306      -0.53853516453894179     
  0.35847566118081375      -0.74817489837189255      -0.55832743241505411     
  0.35326908893189213      -0.72723764578189543      -0.58849499349003587     
  0.37760104287560214      -0.70127116100585252      -0.60467860154032349     
  0.41394154837939506      -0.69742635168684552      -0.58502040861669569     
  0.41808124511875655      -0.72340358424804374      -0.54945002209212213     
  0.20489591388141790      -0.79664377282921517      -0.56866190630912883     
  0.17759805880288485      -0.81826010163354479      -0.54672601509724061     
  0.13175771361416885      -0.81918197935273318      -0.55819422211888292     
  0.11827317122554828      -0.79576022885214392      -0.59395043155589644     
  0.15322558937549408      -0.77328945151875927      -0.61526038628400970     
  0.19491683796656598      -0.77456447320225519      -0.60171197688763711     
  0.15802629054087872       -2.0060582662556142E-002  0.98723110998444963     
   9.3792415025392498E-002  -6.5049892187233241E-002  0.99346439010672838     
  0.16348344908002591      -0.20994638592632750       0.96394796379958814     
  0.23205790628189860      -0.17139864489632822       0.95748192288928569     
   7.7979169670819248E-002   1.2867776891259846E-002  0.99687194233528620     
  -6.9241581397919957E-002  -4.0808879200458503E-002  0.99676488641199512     
  -3.9104853814978871E-002 -0.11634196123483498       0.99243909559435495     
 -0.11811032929375173      -0.11158285126585668       0.98671131412257718     
 -0.12080992645659645      -0.26269192463790342       0.95728674617357246     
  -4.3623414716616127E-002 -0.26313256699248633       0.96377292443625262     
  -5.3424328066929233E-002 -0.33454702271734449       0.94086350272585118     
   9.9300483130528999E-002 -0.44397701301626646       0.89051885210993564     
  0.12478857052358164      -0.37013156933070934       0.92055984816385905     
  0.18083652373893089      -0.41946614797088672       0.88957647360330139     
  0.22182742542858724      -0.25831803426210936       0.94024698165039822     
 -0.91099339610186614        3.0629051589675060E-002  0.41128201207627041     
 -0.91718980976001119       -4.8830508405589432E-002  0.39544713214441951     
 -0.84805662007961935       -7.9972808168143852E-002  0.52383615672539585     
 -0.84950463724497005       -8.9646663844563674E-003  0.52750498201998741     
 -0.94105076031716239        2.0051628329851834E-003  0.33825943568288469     
 -0.95954736401233953      -0.12066481893537684       0.25437935782658072     
 -0.93456859048721874      -0.16589634106709750       0.31473791270719575     
 -0.94672758471548502      -0.20756618280320602       0.24621770873617144     
 -0.89161186491029309      -0.33511407454890468       0.30451081982488004     
 -0.88377546799787821      -0.29188105637465411       0.36571350958741927     
 -0.85280489660139969      -0.37083908509832186       0.36769849237672392     
 -0.80330791761488418      -0.33851523473257589       0.49000390340403166     
 -0.83449897405180096      -0.26124227647486670       0.48514321111267839     
 -0.79258884825231146      -0.26884155098059648       0.54729072538498380     
 -0.80239101064793006       -8.1871506799580468E-002  0.59115625887387824     
 -0.18012029731165180      -0.97630777126249313       0.11991586329099863     
 -0.11942159463871455      -0.98722531407667291       0.10547351316876294     
 -0.13391515498482628      -0.97037509558604473       0.20109426926634283     
 -0.21358529547823071      -0.93859284463153858       0.27097009717301546     
 -0.13184205681970504      -0.98981481254520576        5.3705762443604012E-002
  -2.7104881871958784E-002 -0.99962798993483337       -3.0343232444579515E-003
  -2.0339969837749005E-002 -0.99898368402326776        4.0222937265936398E-002
   2.3850768510965757E-002 -0.99969280684495432       -6.7403845508368304E-003
   9.2719456966062611E-002 -0.99515640074966905        3.2662522053303007E-002
   5.1135888815407482E-002 -0.99562846845540731        7.8160563433218741E-002
   9.6101864698401748E-002 -0.99231660803087374        7.7924200525840537E-002
   6.6930808483404103E-002 -0.98164619790571439       0.17858053928973516     
   1.4496230079864735E-002 -0.98256499842742384       0.18535340077481255     
 -0.14038849950240584      -0.95187077241532148       0.27245752298096332     
   2.1561197274090633E-002 -0.97004573428586227       0.24196360917689622     
  0.50266087795239667      -0.85556111010000890       0.12388393221304496     
  0.54697530167933750      -0.82837666566232027       0.12087232577796352     
  0.56042973239437432      -0.80597542861640148       0.19058363915871143     
  0.48473254648442266      -0.84780748159367902       0.21507401640484317     
  0.52968326287964884      -0.84439185978065756        8.0237323991588311E-002
  0.59328813370647282      -0.80422962443592927        3.4984304805647549E-002
  0.63156625563158109      -0.77168470055957372        7.5011916851825178E-002
  0.64489646539667411      -0.76347525158408347        3.4843781905766549E-002
  0.70877009825769899      -0.69784019220511229       0.10326671273408218     
  0.67157908701195590      -0.72651035141654319       0.14547934277002553     
  0.71119984458224117      -0.68359755214639661       0.16397916869422915     
  0.67883032350468098      -0.67571397938901201       0.28740217457214201     
  0.63699254075638356      -0.72800023410482628       0.25348799214961876     
  0.62298810117952730      -0.71378524360478335       0.31999445589070302     
  0.54467248481822583      -0.80260967899944569       0.24320688201271431     
  0.92534757355795083       0.14626719438609731       0.34976817459116022     
  0.91063177471433498       0.22623215369671978       0.34578719397103824     
  0.83698979785977934       0.27563156476575601       0.47273176197863687     
  0.85390886864315718       0.19675414844450101       0.48179606590594165     
  0.93284306496824965       0.23050578723840248       0.27689510322547461     
  0.89528143351560086       0.37552114357812655       0.23969777956423996     
  0.86188866624793381       0.40376982476739759       0.30678633542037465     
  0.77058498080838045       0.54367096546075111       0.33259685606981104     
  0.78137596997454595       0.48944149451035401       0.38716742760440032     
  0.85643198634829321       0.45384122395037690       0.24607396490230454     
  0.73060369677365489       0.54636067770331465       0.40952197513716415     
  0.71147180866465187       0.46200640614373856       0.52948838151332067     
  0.76570769896265722       0.40605323171279195       0.49881107923231843     
  0.80496634938312961       0.24877902292141205       0.53864475688069680     
  0.73152622227108466       0.38359835627160965       0.56366806472915854     
 -0.31522958681683633       0.76329414516931016       0.56392584223950826     
 -0.30252019805851332       0.71733629821209965       0.62762262947889269     
 -0.15524819197334030       0.76144866383218368       0.62935993774404719     
 -0.17173924938602195       0.80665142842125870       0.56552551069449453     
  -6.8889107906061203E-002  0.88698808567545828       0.45662503948173161     
 -0.14771113692688409       0.88507078642086734       0.44139678640891183     
