         162
   1.7976192454799325E-002 -0.13385555998284870       0.99083779982725029     
 -0.87046406558328349      -0.26831045780669366       0.41267639714403775     
   1.9476585126535528E-003 -0.96825880834517952       0.24994216668719790     
  0.59796222195309900      -0.74704448337815166       0.29045777829347819     
  0.82009504755396834       0.38342590378970531       0.42476898342569958     
 -0.31691948420758254       0.86602277577970099       0.38673840300702195     
  0.13389425338444494      -0.43187818964769659      -0.89193809102271793     
 -0.38669316511352303      -0.81653446787174944      -0.42864887592513845     
  0.33870225178948210      -0.86681216937547956      -0.36594732907251720     
  0.81006746777754723      -0.36200222931908133      -0.46124297676657133     
  0.41619997655444524       0.68719981104573247      -0.59542757680072977     
 -0.76951099808934220       0.27455192867401013      -0.57660563844010904     
  0.42213862681316267       0.27661626718346699       0.86329741137210769     
 -0.20145063274572705       0.46100038503830304       0.86423161684867933     
 -0.54353202466242212      -0.12401370467611150       0.83017681202191751     
 -0.13891241519055117      -0.67595395195448205       0.72373309703442856     
  0.50318556469358133      -0.35735046575286306       0.78683221344211218     
 -0.98739554094712401       0.14186567301107503       -7.0172477075068421E-002
 -0.85610093536258458      -0.49210792289190647      -0.15786380426912699     
 -0.50728812148518054      -0.81978055332863486       0.26574161545424896     
 -0.76743408707163829       0.42693056411597169       0.47830452164300030     
 -0.16444088780745678      -0.98009625766980968      -0.11122283991487253     
  0.22104763809027445      -0.96112658755308322      -0.16544976395654568     
  0.29536331993187864      -0.94817679224313212       0.11713786702148420     
  0.50197022732322705      -0.85692900464944921      -0.11704089828590758     
  0.78696513002542523      -0.60765162260025640      -0.10698312799381562     
  0.91909992505141058      -0.17546848894363434       0.35279758666738203     
  0.97173683026206759       0.21597819939463786       -9.5294019216735984E-002
  0.67115705254607172       0.74082206636845538       -2.7034733200856587E-002
  0.28989886167941403       0.81024030523136914       0.50938128918871550     
   3.4210519557404541E-002  0.99055314737794198      -0.13279345831503062     
 -0.63842021176012520       0.75820618969543951      -0.13245001745443483     
  -2.4421230294260358E-002 -0.70644211197402063      -0.70734938039175510     
 -0.31459620712698672        6.8420152049350300E-002 -0.94675652057688930     
  0.23687438350275850       0.24891137134553112      -0.93911322834633482     
  0.47088072125576086      -0.50266954122135143      -0.72497908844184644     
  0.28758563591280834      -0.76025274113115926      -0.58250345202340570     
   3.8571446118047865E-002 -0.90050223840670174      -0.43313734792659259     
 -0.65043416458596992      -0.33732579535682344      -0.68054882655562476     
  0.55980307148995723      -0.71192296031972335      -0.42401205138534875     
  0.69961682639930078       0.16258067669455406      -0.69577569646008153     
 -0.25095018568804228       0.68639763258649433      -0.68255570782375929     
  0.25337896413127536        5.8859880006183640E-002  0.96557475891896616     
  -9.0563428409381863E-002  0.16270685076385685       0.98250941275350978     
 -0.26983224029896896      -0.14136185324966544       0.95247435059483854     
  -3.2997439474435390E-002 -0.43190984887878864       0.90131295975905779     
  0.27698449588342788      -0.27378989624030681       0.92104217154098067     
 -0.98172543857372818       -5.8701164382254249E-002  0.18102302769920933     
 -0.90351058968195963      -0.40617051501080687       0.13672646806091932     
 -0.72435438172602706      -0.58052532362328624       0.37188852940953121     
 -0.76695755083574702       -9.7856188842316116E-002  0.63419262178086655     
 -0.89035296843080369       0.11043285165153653       0.44167428822896837     
 -0.23600196760420150      -0.86201328430423108       0.44859354539491336     
  -2.0383776093611927E-002 -0.99931756380028891        3.0804356062427454E-002
  0.14801401455922952      -0.98761032551768868       -5.2131530045694159E-002
  0.16151462330987351      -0.98197378156800108        9.8186143473045093E-002
   7.7562607324180841E-002 -0.83373373723909905       0.54669195835900108     
  0.42425546354243854      -0.88087976312407779       0.20990032056397409     
  0.57090148941281527      -0.81786098181833067        7.1936804247794528E-002
  0.72758007040174100      -0.67979374172458584        9.2237247716336415E-002
  0.78076738551937852      -0.49267476139709909       0.38428357913336042     
  0.55702555352038885      -0.57838554697659816       0.59598044579825404     
  0.95621714658314505       0.14990543519535204       0.25135060986454810     
  0.88582298332133236       0.45533607158838374        8.9368362020084330E-002
  0.71851630801871624       0.64387060898938409       0.26299230785479782     
  0.57549470181617635       0.62555788111508037       0.52676672783720990     
  0.64884092779142699       0.32742238457628192       0.68687701410160873     
  -1.8142020234389846E-002  0.88576793097628748       0.46377369433356397     
 -0.15898522291134312       0.97779556497844866       0.13652667140272198     
 -0.49949435636697187       0.85533446279390635       0.13750761693304195     
 -0.56452355933025733       0.68594601987888804       0.45912003743401314     
 -0.27093917805493467       0.70601791803211023       0.65431694247705452     
  0.24951320149238454      -0.68536121968508479      -0.68412218267849911     
  0.14685381130215960      -0.62556390571380094      -0.76622696244267241     
 -0.15177098602212194      -0.22247023949073449      -0.96305376814734911     
  0.15691356287862762       -9.3492573403156254E-002 -0.98317713180443245     
  0.28373527576064661      -0.56575612534004982      -0.77421850916213808     
 -0.16374285255669915      -0.87012845078956680      -0.46482766415430099     
 -0.25192375286906643      -0.92530653131031526      -0.28344707769676902     
 -0.66267974031353472      -0.69211571647617598      -0.28606187579727538     
 -0.56673910035596853      -0.59816457422525815      -0.56657385597080190     
 -0.23823386500453589      -0.73215313665836257      -0.63811943243120373     
  0.42260274732122921      -0.81567386715011181      -0.39507348734752012     
  0.40142223136093913      -0.87338322642158850      -0.27579327760955447     
  0.28797032882686158      -0.91875518934863487      -0.27011477516104759     
  0.23141266577213110      -0.88912726220181104      -0.39484286713798933     
  0.31937917591328024      -0.82090574745629208      -0.47340331197212854     
  0.83135207418164947       -6.3657037559707697E-002 -0.55208831750272647     
  0.95863262084257828       -5.7998296131045762E-002 -0.27867489284538194     
  0.78599090054806664      -0.53889435838721866      -0.30300358868182908     
  0.68012660408227932      -0.57649853348808755      -0.45285454983426066     
  0.64209409547501606      -0.46370017400492081      -0.61048941119721900     
   7.1446331786574335E-002  0.75793496879998667      -0.64840574083239422     
  0.23647779920970646       0.89134740358856634      -0.38675322441688204     
  0.56625201350361809       0.75691439183504794      -0.32625030365668306     
  0.50108577621877948       0.37642171390486839      -0.77924305461912502     
  0.24643513397018157       0.54168829297912890      -0.80364389999206487     
 -0.90039536088500527       0.30293888105748951      -0.31227588514068355     
 -0.72334057112485528       0.57053388548998096      -0.38893380371532832     
 -0.54484453342808492       0.51914844175183350      -0.65850537569573075     
 -0.57182245871659132       0.18642014313281297      -0.79891589416011344     
 -0.75595981629852460       -5.1406491674582153E-002 -0.65259645168788039     
  0.56992743241632438       -2.2782730502866323E-002  0.82137912620797082     
  0.81691235814320018        6.7639329366799464E-002  0.57278191332803574     
  0.35965358153816956       0.56596206448416475       0.74184650895693316     
  0.12258000021733438       0.39450054576053484       0.91068296510989943     
   4.7832348938724734E-002  0.67947882575067708       0.73213427166844547     
 -0.50904550876360444       0.47397546378546423       0.71848446728997362     
 -0.40639452322193703       0.18409303243280650       0.89495991357429416     
 -0.64827095846928273      -0.40184136602637766       0.64673663956464700     
 -0.36581936206442978      -0.43567138298260549       0.82241512655641102     
 -0.67829220315985461       0.19461495870794254       0.70855113081531129     
 -0.46181160082115558      -0.66847086255057142       0.58298949498931496     
  0.23468733996620075      -0.93361276770717183       0.27071950877936973     
  0.23438012129828645      -0.60357211048210624       0.76208048537433148     
  0.74301317613604034      -0.25522511205054138       0.61870151306346577     
  0.37011862069122042      -0.79525754390753089       0.48018501171505773     
 -0.92670773657674643       0.31991251056657294       0.19715160803756027     
 -0.86275384241701569       0.49986237155120067       -7.6114498631238009E-002
 -0.92123268723264440       -1.4538744372802550E-002 -0.38874022288178911     
 -0.97236119764286877      -0.19469933619675012      -0.12886376450760187     
 -0.82926960351246637      -0.35496084569582792      -0.43164189174960693     
 -0.45204179779914988      -0.88735283590328573       -9.0901912284115385E-002
 -0.71379067894998094      -0.69848691555296905        5.1175144801209112E-002
 -0.24349862611016448      -0.96253738002557421       0.11929044863678570     
 -0.75117072075421598       0.63127254323862747       0.19297026826593491     
  -7.0031154497960768E-002 -0.95134925708307105      -0.30005037651563066     
   3.1595265955200694E-002 -0.98737787289054091      -0.15519882504507221     
  0.13799256177928396      -0.94984361035554499      -0.28063351325230923     
  0.34634913581512317      -0.92475113472649439      -0.15772639266203484     
  0.26675380789159697      -0.96348678810404165       -2.3143360263591664E-002
  0.41497495551934138      -0.90944000364654687        2.6733238843984014E-002
  0.53719984405437415      -0.79831858108881726      -0.27222007757748828     
  0.65137536273414254      -0.75253472592960746       -9.6961967250127942E-002
  0.67759012981811872      -0.68279812056073919      -0.27323678839385329     
  0.91813229536452545      -0.35546496012399986      -0.17515065039191521     
  0.89869406550508812      -0.42433899052452967       0.11083951347132254     
  0.99396362848347675      -0.10155898881586538        4.1497916124305444E-002
  0.87563894093302130       0.24541832617549095      -0.41596428969193655     
  0.82189267290201762       0.52112615880080748      -0.23004338904539848     
  0.37685623464187745       0.92275463888204401       -8.0642760575358921E-002
  0.47472846169410093       0.84653458678606752       0.24085697214839860     
  0.68618808343362692       0.49390022967188085      -0.53404913377305374     
  0.17100674066790178       0.96589408750372097       0.19443586698830873     
 -0.12535416004065306       0.89779129655381973      -0.42220507149099207     
 -0.32658620236625158       0.93289506807153211      -0.15181648260910696     
 -0.45551051074837257       0.77949978671763420      -0.42998867090298953     
  0.14921082211691977      -0.75200827287488148      -0.64204336932245532     
  -2.4723995160397309E-002 -0.81764094543261756      -0.57519736475001682     
 -0.37275778867379139      -0.45964704208026513      -0.80608698518825384     
  -8.9567985027768901E-002 -0.54453763050061255      -0.83394025267212257     
 -0.48838799105108122      -0.15145836309845581      -0.85938206546600993     
 -0.32257500538585282       0.38893650742586616      -0.86294481810350210     
  -5.2137431334077333E-002  0.16349720360829559      -0.98516513979441633     
  -3.6232206681893329E-002  0.48972241036794767      -0.87112524242061085     
  0.46341875165492891        2.5742430489775984E-002 -0.88576542486544729     
  0.37887436500895605      -0.31990902751602818      -0.86839647031342171     
  0.63214385990602562      -0.21674517152216724      -0.74391912934467375     
  0.53412083506596142      -0.61820370464283336      -0.57666204410756605     
  0.37485739769397181      -0.66346720019723682      -0.64752853655768949     
  0.40354688204133660      -0.75327249439753885      -0.51935581558198185     
  0.19039822226665137      -0.83018781392217200      -0.52396250874735684     
